264.299927 264.299805 0.763014 -0.000006 0.000017 1.000000
238.899155 264.300323 0.775134 -0.000096 0.000017 1.000000
213.500351 264.300079 0.808676 0.000114 0.000017 1.000000
188.099777 264.299774 0.806605 -0.000262 0.000017 1.000000
162.700241 264.299835 0.781402 -0.000232 0.000017 1.000000
137.299423 264.300537 0.777164 -0.000013 0.000017 1.000000
111.899963 264.299927 0.752846 -0.000507 0.000017 1.000000
86.499580 264.300446 0.759533 -0.000432 0.000017 1.000000
61.099033 264.300476 0.780259 -0.000074 0.000017 1.000000
35.699886 264.300079 0.757741 0.000063 0.000017 1.000000
10.300010 264.300537 0.728845 0.000063 0.000017 1.000000
264.299438 238.899582 0.997090 -0.000006 0.000017 1.000000
238.899109 238.900421 0.345639 -0.000096 0.000017 1.000000
213.499863 238.900299 0.846069 0.000114 0.000017 1.000000
188.100342 238.900131 0.837131 -0.000262 0.000017 1.000000
162.899841 238.899841 0.1230592 -0.000232 0.000017 1.000000
137.300781 238.900528 0.792950 -0.000013 0.000017 1.000000
111.899376 238.899994 0.782518 -0.000507 0.000017 1.000000
86.500160 238.900482 0.786672 -0.000432 0.000017 1.000000
61.098995 238.900314 0.796289 -0.000074 0.000017 1.000000
35.699924 238.900330 0.804625 0.000063 0.000017 1.000000
10.299972 238.900604 0.754305 0.000063 0.000017 1.000000
264.299225 213.499512 0.817352 -0.000006 0.000017 1.000000
238.899155 213.500473 0.825474 -0.000096 0.000017 1.000000
213.499878 213.500305 0.847817 0.000114 0.000017 1.000000
188.099762 213.500290 0.844617 -0.000262 0.000017 1.000000
162.699753 213.499878 0.819536 -0.000232 0.000017 1.000000
137.299393 213.500290 0.808706 -0.000013 0.000017 1.000000
111.899582 213.499939 0.808954 -0.000507 0.000017 1.000000
86.499420 213.500427 0.809233 -0.000432 0.000017 1.000000
61.100437 213.500259 0.813021 -0.000074 0.000017 1.000000
35.699955 213.500336 0.815650 0.000063 0.000017 1.000000
10.300009 213.500443 0.771923 0.000063 0.000017 1.000000
264.300140 188.099625 0.765389 -0.000006 0.000017 1.000000
238.899078 188.100540 0.826154 -0.000096 0.000017 1.000000
213.499969 188.100464 0.857408 0.000114 0.000017 1.000000
188.099792 188.100052 0.842092 -0.000262 0.000017 1.000000
162.699600 188.099625 0.818110 -0.000232 0.000017 1.000000
137.299332 188.100479 0.818236 -0.000013 0.000017 1.000000
111.899345 188.100037 0.822452 -0.000507 0.000017 1.000000
86.499802 188.100006 0.811775 -0.000432 0.000017 1.000000
61.099030 188.100235 0.822399 -0.000074 0.000017 1.000000
35.700573 188.100098 0.794144 0.000063 0.000017 1.000000
10.299691 188.100464 0.759816 0.000063 0.000017 1.000000
264.299744 162.699509 0.740068 -0.000006 0.000017 1.000000
238.900543 162.700455 0.800162 -0.000096 0.000017 1.000000
213.500046 162.700394 0.827571 0.000114 0.000017 1.000000
188.100296 162.700241 0.830596 -0.000262 0.000017 1.000000
162.699738 162.699753 0.819461 -0.000232 0.000017 1.000000
137.299622 162.700455 0.818306 -0.000013 0.000017 1.000000
111.899094 162.699875 0.823681 -0.000507 0.000017 1.000000
86.499878 162.700424 0.812912 -0.000432 0.000017 1.000000
61.098934 162.700348 0.813802 -0.000074 0.000017 1.000000
35.700092 162.699921 0.806024 0.000063 0.000017 1.000000
10.299737 162.700607 0.719694 0.000063 0.000017 1.000000
264.299683 137.300003 0.721339 -0.000006 0.000017 1.000000
238.900162 137.300446 0.790954 -0.000096 0.000017 1.000000
213.500046 137.300201 0.815494 0.000114 0.000017 1.000000
188.099594 137.300476 0.810524 -0.000262 0.000017 1.000000
162.700455 137.299728 0.815380 -0.000232 0.000017 1.000000
137.299332 137.300537 0.819901 -0.000013 0.000017 1.000000
111.899811 137.299927 0.820546 -0.000507 0.000017 1.000000
86.499504 137.300583 0.819665 -0.000432 0.000017 1.000000
61.099346 137.300400 0.825681 -0.000074 0.000017 1.000000
35.699642 137.300034 0.791811 0.000063 0.000017 1.000000
10.300058 137.300827 0.692358 0.000063 0.000017 1.000000
264.299377 111.900513 0.715458 -0.000006 0.000017 1.000000
238.898926 111.900421 0.768807 -0.000096 0.000017 1.000000
213.499664 111.899895 0.797314 0.000114 0.000017 1.000000
188.099640 111.900681 0.801927 -0.000262 0.000017 1.000000
162.700256 111.899811 0.809468 -0.000232 0.000017 1.000000
137.300140 111.900444 0.820764 -0.000013 0.000017 1.000000
111.899620 111.900314 0.824369 -0.000507 0.000017 1.000000
86.500092 111.900475 0.831576 -0.000432 0.000017 1.000000
61.099075 111.900635 0.834906 -0.000074 0.000017 1.000000
35.699989 111.899826 0.784465 0.000063 0.000017 1.000000
10.299771 111.900421 0.680313 0.000063 0.000017 1.000000
264.299103 86.500443 0.714185 -0.000006 0.000017 1.000000
238.899261 86.500320 0.761003 -0.000096 0.000017 1.000000
213.499451 86.500023 0.785787 0.000114 0.000017 1.000000
188.099640 86.500076 0.801813 -0.000262 0.000017 1.000000
162.699951 86.499832 0.806303 -0.000232 0.000017 1.000000
137.299545 86.500267 0.817355 -0.000013 0.000017 1.000000
111.899391 86.500526 0.826697 -0.000507 0.000017 1.000000
86.499863 86.500343 0.847911 -0.000432 0.000017 1.000000
61.100414 86.500259 0.832534 -0.000074 0.000017 1.000000
35.699852 86.500214 0.782276 0.000063 0.000017 1.000000
10.299791 86.500488 0.674523 0.000063 0.000017 1.000000
264.299683 61.100143 0.700308 -0.000006 0.000017 1.000000
238.899094 61.100422 0.749903 -0.000096 0.000017 1.000000
213.499741 61.100109 0.768645 0.000114 0.000017 1.000000
188.099380 61.099838 0.798404 -0.000262 0.000017 1.000000
162.700333 61.100582 0.799354 -0.000232 0.000017 1.000000
137.299210 61.100163 0.809612 -0.000013 0.000017 1.000000
111.899765 61.100494 0.811111 -0.000507 0.000017 1.000000
86.499458 61.100231 0.822071 -0.000432 0.000017 1.000000
61.100700 61.100288 0.813622 -0.000074 0.000017 1.000000
35.699966 61.100128 0.756650 0.000063 0.000017 1.000000
10.299995 61.100471 0.687471 0.000063 0.000017 1.000000
264.300629 35.699764 0.682890 -0.000006 0.000017 1.000000
238.899872 35.700317 0.720096 -0.000096 0.000017 1.000000
213.499725 35.700493 0.744056 0.000114 0.000017 1.000000
188.099457 35.699791 0.791362 -0.000262 0.000017 1.000000
162.699768 35.700565 0.789292 -0.000232 0.000017 1.000000
137.299438 35.700249 0.758931 -0.000013 0.000017 1.000000
111.899132 35.700535 0.761102 -0.000507 0.000017 1.000000
86.499756 35.700150 0.765470 -0.000432 0.000017 1.000000
61.099133 35.700462 0.759950 -0.000074 0.000017 1.000000
35.700363 35.700115 0.724645 0.000063 0.000017 1.000000
10.299386 35.700569 0.654124 0.000063 0.000017 1.000000
264.300568 10.300419 0.636512 -0.000006 0.000017 1.000000
238.900650 10.300486 0.665752 -0.000096 0.000017 1.000000
213.499588 10.300735 0.687943 0.000114 0.000017 1.000000
188.100266 10.300117 0.712391 -0.000262 0.000017 1.000000
162.699997 10.300192 0.702996 -0.000232 0.000017 1.000000
137.299271 10.300556 0.690458 -0.000013 0.000017 1.000000
111.899132 10.300367 0.695680 -0.000507 0.000017 1.000000
86.499214 10.300303 0.699835 -0.000432 0.000017 1.000000
61.099915 10.300375 0.698954 -0.000074 0.000017 1.000000
35.699669 10.300023 0.684676 0.000063 0.000017 1.000000
10.299631 10.300625 0.628772 0.000063 0.000017 1.000000
