264.299225 264.299103 0.179558 -0.000006 0.000017 1.000000
238.899277 264.299042 0.179712 -0.000096 0.000017 1.000000
213.499512 264.298981 0.181483 0.000114 0.000017 1.000000
188.099030 264.299194 0.189145 -0.000262 0.000017 1.000000
162.699142 264.298859 0.196898 -0.000232 0.000017 1.000000
137.298859 264.298981 0.190216 -0.000013 0.000017 1.000000
111.899147 264.298920 0.203584 -0.000507 0.000017 1.000000
86.499084 264.298889 0.201510 -0.000431 0.000017 1.000000
61.099030 264.298950 0.199497 -0.000074 0.000017 1.000000
35.699459 264.298889 0.201482 0.000063 0.000017 1.000000
10.299029 264.299561 0.230078 0.000063 0.000017 1.000000
264.298981 238.898956 0.180479 -0.000006 0.000017 1.000000
238.899567 238.898987 0.179931 -0.000096 0.000017 1.000000
213.498932 238.898819 0.178498 0.000114 0.000017 1.000000
188.099167 238.898819 0.190981 -0.000262 0.000017 1.000000
162.899017 238.898880 0.191734 -0.000232 0.000017 1.000000
137.299454 238.898880 0.192692 -0.000013 0.000017 1.000000
111.899330 238.898911 0.196448 -0.000507 0.000017 1.000000
86.499283 238.899124 0.202796 -0.000431 0.000017 1.000000
61.100082 238.899109 0.202736 -0.000074 0.000017 1.000000
35.699810 238.899170 0.202097 0.000063 0.000017 1.000000
10.299487 238.899796 0.188213 0.000063 0.000017 1.000000
264.300232 213.499390 0.169741 -0.000006 0.000017 1.000000
238.899292 213.499039 0.168400 -0.000096 0.000017 1.000000
213.499054 213.499313 0.179693 0.000114 0.000017 1.000000
188.099213 213.498947 0.189216 -0.000262 0.000017 1.000000
162.699081 213.498947 0.195107 -0.000232 0.000017 1.000000
137.299484 213.499313 0.190042 -0.000013 0.000017 1.000000
111.899132 213.498734 0.195201 -0.000507 0.000017 1.000000
86.499168 213.499207 0.202161 -0.000431 0.000017 1.000000
61.099033 213.498840 0.200697 -0.000074 0.000017 1.000000
35.698677 213.498764 0.200913 0.000063 0.000017 1.000000
10.299453 213.500122 0.186020 0.000063 0.000017 1.000000
264.299133 188.100143 0.166664 -0.000006 0.000017 1.000000
238.898849 188.098831 0.181894 -0.000096 0.000017 1.000000
213.499542 188.098984 0.180644 0.000114 0.000017 1.000000
188.098907 188.098877 0.187970 -0.000262 0.000017 1.000000
162.699112 188.098648 0.193495 -0.000232 0.000017 1.000000
137.299667 188.099197 0.194930 -0.000013 0.000017 1.000000
111.899178 188.098816 0.198624 -0.000507 0.000017 1.000000
86.499512 188.098907 0.201708 -0.000431 0.000017 1.000000
61.099140 188.099182 0.201831 -0.000074 0.000017 1.000000
35.700035 188.099075 0.203541 0.000063 0.000017 1.000000
10.299800 188.100067 0.182424 0.000063 0.000017 1.000000
264.299927 162.700241 0.171642 -0.000006 0.000017 1.000000
238.899323 162.699234 0.175185 -0.000096 0.000017 1.000000
213.500183 162.699036 0.180862 0.000114 0.000017 1.000000
188.098938 162.699341 0.190385 -0.000262 0.000017 1.000000
162.699982 162.698868 0.193285 -0.000232 0.000017 1.000000
137.299057 162.699280 0.195912 -0.000013 0.000017 1.000000
111.899338 162.699158 0.202169 -0.000507 0.000017 1.000000
86.499130 162.699066 0.204551 -0.000431 0.000017 1.000000
61.098919 162.699112 0.207055 -0.000074 0.000017 1.000000
35.699738 162.699051 0.208398 0.000063 0.000017 1.000000
10.298794 162.699432 0.187252 0.000063 0.000017 1.000000
264.298828 137.299698 0.177355 -0.000006 0.000017 1.000000
238.899277 137.299088 0.182850 -0.000096 0.000017 1.000000
213.498886 137.298981 0.187826 0.000114 0.000017 1.000000
188.098938 137.299103 0.194571 -0.000262 0.000017 1.000000
162.699066 137.298935 0.201439 -0.000232 0.000017 1.000000
137.298935 137.298920 0.205438 -0.000013 0.000017 1.000000
111.899521 137.298950 0.204554 -0.000507 0.000017 1.000000
86.499229 137.298950 0.209622 -0.000431 0.000017 1.000000
61.099720 137.298904 0.209226 -0.000074 0.000017 1.000000
35.699608 137.299057 0.215697 0.000063 0.000017 1.000000
10.299360 137.299866 0.192963 0.000063 0.000017 1.000000
264.300201 111.899933 0.181632 -0.000006 0.000017 1.000000
238.899307 111.899055 0.184258 -0.000096 0.000017 1.000000
213.499069 111.899132 0.195460 0.000114 0.000017 1.000000
188.099365 111.898964 0.201656 -0.000262 0.000017 1.000000
162.699020 111.898880 0.208372 -0.000232 0.000017 1.000000
137.299591 111.899918 0.210417 -0.000013 0.000017 1.000000
111.899246 111.899048 0.212524 -0.000507 0.000017 1.000000
86.499504 111.899300 0.217744 -0.000431 0.000017 1.000000
61.099056 111.898956 0.213534 -0.000074 0.000017 1.000000
35.698956 111.899002 0.229344 0.000063 0.000017 1.000000
10.299408 111.900238 0.198949 0.000063 0.000017 1.000000
264.299225 86.500481 0.188351 -0.000006 0.000017 1.000000
238.898804 86.498878 0.192320 -0.000096 0.000017 1.000000
213.498886 86.499168 0.202240 0.000114 0.000017 1.000000
188.098877 86.498878 0.206910 -0.000262 0.000017 1.000000
162.699005 86.498795 0.215151 -0.000232 0.000017 1.000000
137.299332 86.499290 0.216739 -0.000013 0.000017 1.000000
111.899208 86.498955 0.217473 -0.000507 0.000017 1.000000
86.499542 86.499092 0.223669 -0.000431 0.000017 1.000000
61.099094 86.499023 0.225105 -0.000074 0.000017 1.000000
35.699749 86.498802 0.220987 0.000063 0.000017 1.000000
10.299590 86.500244 0.200205 0.000063 0.000017 1.000000
264.299316 61.100510 0.201051 -0.000006 0.000017 1.000000
238.899384 61.099167 0.212344 -0.000096 0.000017 1.000000
213.500549 61.098980 0.216892 0.000114 0.000017 1.000000
188.099045 61.099331 0.225012 -0.000262 0.000017 1.000000
162.699875 61.099083 0.230323 -0.000232 0.000017 1.000000
137.299103 61.100010 0.228280 -0.000013 0.000017 1.000000
111.899460 61.099194 0.227884 -0.000507 0.000017 1.000000
86.499329 61.099117 0.235363 -0.000431 0.000017 1.000000
61.098961 61.099216 0.237836 -0.000074 0.000017 1.000000
35.699776 61.099091 0.229567 0.000063 0.000017 1.000000
10.298908 61.099747 0.209732 0.000063 0.000017 1.000000
264.298981 35.699997 0.215064 -0.000006 0.000017 1.000000
238.899063 35.699341 0.218361 -0.000096 0.000017 1.000000
213.498917 35.699001 0.229380 0.000114 0.000017 1.000000
188.098984 35.699032 0.238842 -0.000262 0.000017 1.000000
162.698944 35.698936 0.246411 -0.000232 0.000017 1.000000
137.298798 35.699070 0.239974 -0.000013 0.000017 1.000000
111.899460 35.698959 0.245254 -0.000507 0.000017 1.000000
86.498947 35.699032 0.250230 -0.000431 0.000017 1.000000
61.099915 35.698902 0.246752 -0.000074 0.000017 1.000000
35.699554 35.698990 0.242084 0.000063 0.000017 1.000000
10.299157 35.699326 0.220113 0.000063 0.000017 1.000000
264.299835 10.299828 0.234539 -0.000006 0.000017 1.000000
238.899078 10.299106 0.235212 -0.000096 0.000017 1.000000
213.499771 10.299103 0.240492 0.000114 0.000017 1.000000
188.099304 10.298934 0.248978 -0.000262 0.000017 1.000000
162.698868 10.299191 0.255480 -0.000232 0.000017 1.000000
137.299667 10.299888 0.252154 -0.000013 0.000017 1.000000
111.899254 10.299108 0.260640 -0.000507 0.000017 1.000000
86.499275 10.300001 0.257528 -0.000431 0.000017 1.000000
61.099453 10.299111 0.256767 -0.000074 0.000017 1.000000
35.698856 10.299302 0.250512 0.000063 0.000017 1.000000
10.299634 10.299365 0.229792 0.000063 0.000017 1.000000
