264.300018 264.299103 0.178520 -0.000006 0.000017 1.000000
238.899124 264.298981 0.175104 -0.000096 0.000017 1.000000
213.499054 264.299133 0.189540 0.000114 0.000017 1.000000
188.099030 264.298981 0.191098 -0.000262 0.000017 1.000000
162.698761 264.298737 0.192046 -0.000232 0.000017 1.000000
137.299316 264.299225 0.189605 -0.000013 0.000017 1.000000
111.898987 264.298859 0.200563 -0.000507 0.000017 1.000000
86.499306 264.299103 0.194887 -0.000431 0.000017 1.000000
61.099098 264.298950 0.188816 -0.000074 0.000017 1.000000
35.698978 264.298828 0.191473 0.000063 0.000017 1.000000
10.299546 264.299927 0.196722 0.000063 0.000017 1.000000
264.299835 238.899445 0.179929 -0.000006 0.000017 1.000000
238.898941 238.898743 0.180328 -0.000096 0.000017 1.000000
213.500427 238.898911 0.184601 0.000114 0.000017 1.000000
188.099075 238.899002 0.191286 -0.000262 0.000017 1.000000
162.899246 238.898727 0.193291 -0.000232 0.000017 1.000000
137.300003 238.899216 0.191136 -0.000013 0.000017 1.000000
111.899162 238.899063 0.196051 -0.000507 0.000017 1.000000
86.499817 238.899017 0.198432 -0.000431 0.000017 1.000000
61.098984 238.899261 0.191262 -0.000074 0.000017 1.000000
35.700356 238.899063 0.194376 0.000063 0.000017 1.000000
10.299490 238.900101 0.183452 0.000063 0.000017 1.000000
264.299072 213.499634 0.173800 -0.000006 0.000017 1.000000
238.899139 213.499100 0.179508 -0.000096 0.000017 1.000000
213.499130 213.499008 0.194006 0.000114 0.000017 1.000000
188.098816 213.499130 0.194434 -0.000262 0.000017 1.000000
162.699158 213.498886 0.194466 -0.000232 0.000017 1.000000
137.298782 213.499008 0.187388 -0.000013 0.000017 1.000000
111.899368 213.498917 0.195445 -0.000507 0.000017 1.000000
86.499001 213.498810 0.195386 -0.000431 0.000017 1.000000
61.099030 213.498825 0.190474 -0.000074 0.000017 1.000000
35.699696 213.498856 0.192489 0.000063 0.000017 1.000000
10.299062 213.499023 0.185929 0.000063 0.000017 1.000000
264.299103 188.099075 0.176582 -0.000006 0.000017 1.000000
238.900253 188.098984 0.180794 -0.000096 0.000017 1.000000
213.499161 188.098984 0.186747 0.000114 0.000017 1.000000
188.099457 188.098892 0.191815 -0.000262 0.000017 1.000000
162.699493 188.098892 0.195661 -0.000232 0.000017 1.000000
137.299667 188.098984 0.193068 -0.000013 0.000017 1.000000
111.899323 188.098969 0.197678 -0.000507 0.000017 1.000000
86.499352 188.099304 0.197008 -0.000431 0.000017 1.000000
61.100307 188.099106 0.189410 -0.000074 0.000017 1.000000
35.699013 188.099319 0.191762 0.000063 0.000017 1.000000
10.299323 188.100067 0.191549 0.000063 0.000017 1.000000
264.299133 162.700089 0.171124 -0.000006 0.000017 1.000000
238.898849 162.699020 0.175795 -0.000096 0.000017 1.000000
213.498779 162.699265 0.189133 0.000114 0.000017 1.000000
188.098938 162.699036 0.191148 -0.000262 0.000017 1.000000
162.699051 162.698868 0.196185 -0.000232 0.000017 1.000000
137.299286 162.699188 0.195118 -0.000013 0.000017 1.000000
111.899101 162.698853 0.200857 -0.000507 0.000017 1.000000
86.499191 162.699036 0.197837 -0.000431 0.000017 1.000000
61.099144 162.699112 0.193780 -0.000074 0.000017 1.000000
35.699341 162.698898 0.196680 0.000063 0.000017 1.000000
10.299883 162.699829 0.187159 0.000063 0.000017 1.000000
264.300232 137.300308 0.172349 -0.000006 0.000017 1.000000
238.899338 137.299072 0.177784 -0.000096 0.000017 1.000000
213.500595 137.299072 0.185932 0.000114 0.000017 1.000000
188.099014 137.299561 0.196127 -0.000262 0.000017 1.000000
162.699921 137.298874 0.198173 -0.000232 0.000017 1.000000
137.299393 137.299683 0.194970 -0.000013 0.000017 1.000000
111.899361 137.299133 0.203395 -0.000507 0.000017 1.000000
86.499222 137.299118 0.199703 -0.000431 0.000017 1.000000
61.098934 137.299210 0.196745 -0.000074 0.000017 1.000000
35.699905 137.299042 0.194213 0.000063 0.000017 1.000000
10.298815 137.299408 0.190369 0.000063 0.000017 1.000000
264.299042 111.899849 0.180381 -0.000006 0.000017 1.000000
238.899139 111.899132 0.186059 -0.000096 0.000017 1.000000
213.498764 111.898987 0.198359 0.000114 0.000017 1.000000
188.099136 111.899040 0.201351 -0.000262 0.000017 1.000000
162.699097 111.898972 0.203763 -0.000232 0.000017 1.000000
137.299118 111.898888 0.199736 -0.000013 0.000017 1.000000
111.899475 111.898888 0.206573 -0.000507 0.000017 1.000000
86.499107 111.899071 0.219789 -0.000431 0.000017 1.000000
61.099907 111.898956 0.205782 -0.000074 0.000017 1.000000
35.699867 111.899063 0.201786 0.000063 0.000017 1.000000
10.299574 111.899773 0.209905 0.000063 0.000017 1.000000
264.300171 86.500099 0.189357 -0.000006 0.000017 1.000000
238.899353 86.499123 0.203825 -0.000096 0.000017 1.000000
213.499023 86.499321 0.200592 0.000114 0.000017 1.000000
188.099823 86.499138 0.209168 -0.000262 0.000017 1.000000
162.698929 86.499023 0.213503 -0.000232 0.000017 1.000000
137.299728 86.500084 0.209964 -0.000013 0.000017 1.000000
111.899040 86.499184 0.212011 -0.000507 0.000017 1.000000
86.499298 86.499580 0.220465 -0.000431 0.000017 1.000000
61.099319 86.499031 0.211678 -0.000074 0.000017 1.000000
35.699039 86.498962 0.209268 0.000063 0.000017 1.000000
10.299384 86.500099 0.225291 0.000063 0.000017 1.000000
264.299225 61.100525 0.202699 -0.000006 0.000017 1.000000
238.898819 61.098938 0.208896 -0.000096 0.000017 1.000000
213.499146 61.099068 0.211644 0.000114 0.000017 1.000000
188.098969 61.099026 0.222052 -0.000262 0.000017 1.000000
162.699173 61.098946 0.232673 -0.000232 0.000017 1.000000
137.299271 61.099609 0.225167 -0.000013 0.000017 1.000000
111.899368 61.098965 0.223582 -0.000507 0.000017 1.000000
86.499626 61.099205 0.230114 -0.000431 0.000017 1.000000
61.099262 61.099216 0.231366 -0.000074 0.000017 1.000000
35.700462 61.099010 0.221998 0.000063 0.000017 1.000000
10.299228 61.099766 0.222915 0.000063 0.000017 1.000000
264.299286 35.700794 0.219885 -0.000006 0.000017 1.000000
238.899216 35.699421 0.225014 -0.000096 0.000017 1.000000
213.499466 35.699230 0.228525 0.000114 0.000017 1.000000
188.099045 35.699276 0.233531 -0.000262 0.000017 1.000000
162.698944 35.699104 0.238904 -0.000232 0.000017 1.000000
137.298798 35.699314 0.240523 -0.000013 0.000017 1.000000
111.899300 35.699108 0.242904 -0.000507 0.000017 1.000000
86.499092 35.698879 0.247483 -0.000431 0.000017 1.000000
61.099190 35.698975 0.236224 -0.000074 0.000017 1.000000
35.699314 35.699001 0.234058 0.000063 0.000017 1.000000
10.298923 35.699574 0.227926 0.000063 0.000017 1.000000
264.299194 10.299974 0.220470 -0.000006 0.000017 1.000000
238.899139 10.299195 0.231092 -0.000096 0.000017 1.000000
213.499542 10.299269 0.236129 0.000114 0.000017 1.000000
188.099365 10.299022 0.240372 -0.000262 0.000017 1.000000
162.698944 10.299189 0.251177 -0.000232 0.000017 1.000000
137.299271 10.300054 0.247455 -0.000013 0.000017 1.000000
111.899384 10.299026 0.245595 -0.000507 0.000017 1.000000
86.499191 10.300001 0.255819 -0.000431 0.000017 1.000000
61.099216 10.299264 0.257225 -0.000074 0.000017 1.000000
35.699158 10.299463 0.234246 0.000063 0.000017 1.000000
10.299474 10.299366 0.232844 0.000063 0.000017 1.000000
