264.298920 264.298859 0.183068 -0.000006 0.000017 1.000000
238.898895 264.299042 0.183313 -0.000096 0.000017 1.000000
213.499207 264.298889 0.193599 0.000114 0.000017 1.000000
188.098877 264.298889 0.195371 -0.000262 0.000017 1.000000
162.698990 264.298920 0.196288 -0.000232 0.000017 1.000000
137.298843 264.298920 0.198120 -0.000013 0.000017 1.000000
111.899223 264.298859 0.207826 -0.000507 0.000017 1.000000
86.499092 264.299042 0.197909 -0.000431 0.000017 1.000000
61.099098 264.298706 0.191532 -0.000074 0.000017 1.000000
35.700081 264.298981 0.196782 0.000063 0.000017 1.000000
10.299153 264.299774 0.202673 0.000063 0.000017 1.000000
264.299194 238.899353 0.187345 -0.000006 0.000017 1.000000
238.899948 238.898834 0.190245 -0.000096 0.000017 1.000000
213.499405 238.899063 0.189759 0.000114 0.000017 1.000000
188.099396 238.898849 0.200594 -0.000262 0.000017 1.000000
162.899185 238.898880 0.200096 -0.000232 0.000017 1.000000
137.299301 238.899521 0.201207 -0.000013 0.000017 1.000000
111.899490 238.898911 0.208014 -0.000507 0.000017 1.000000
86.499199 238.899521 0.203559 -0.000431 0.000017 1.000000
61.099693 238.899261 0.200539 -0.000074 0.000017 1.000000
35.699421 238.899078 0.202097 0.000063 0.000017 1.000000
10.299204 238.900345 0.212047 0.000063 0.000017 1.000000
264.299164 213.500244 0.183169 -0.000006 0.000017 1.000000
238.898987 213.498871 0.186833 -0.000096 0.000017 1.000000
213.498840 213.499069 0.198370 0.000114 0.000017 1.000000
188.098969 213.499130 0.200782 -0.000262 0.000017 1.000000
162.698868 213.498566 0.207345 -0.000232 0.000017 1.000000
137.299179 213.499313 0.199716 -0.000013 0.000017 1.000000
111.899231 213.498764 0.204326 -0.000507 0.000017 1.000000
86.499245 213.498749 0.204358 -0.000431 0.000017 1.000000
61.099121 213.498932 0.203657 -0.000074 0.000017 1.000000
35.698841 213.498764 0.207169 0.000063 0.000017 1.000000
10.299483 213.499527 0.199998 0.000063 0.000017 1.000000
264.300049 188.099640 0.180396 -0.000006 0.000017 1.000000
238.898926 188.098984 0.185892 -0.000096 0.000017 1.000000
213.499939 188.098831 0.193613 0.000114 0.000017 1.000000
188.099075 188.099045 0.199475 -0.000262 0.000017 1.000000
162.699188 188.098740 0.202864 -0.000232 0.000017 1.000000
137.299286 188.098984 0.201583 -0.000013 0.000017 1.000000
111.899101 188.099075 0.209183 -0.000507 0.000017 1.000000
86.499672 188.098907 0.208574 -0.000431 0.000017 1.000000
61.099064 188.099274 0.203937 -0.000074 0.000017 1.000000
35.698940 188.099075 0.198628 0.000063 0.000017 1.000000
10.299343 188.100021 0.199362 0.000063 0.000017 1.000000
264.299194 162.699936 0.179089 -0.000006 0.000017 1.000000
238.898941 162.699326 0.187209 -0.000096 0.000017 1.000000
213.499649 162.699112 0.195297 0.000114 0.000017 1.000000
188.098694 162.699203 0.205461 -0.000262 0.000017 1.000000
162.699219 162.699020 0.207751 -0.000232 0.000017 1.000000
137.298843 162.699081 0.206593 -0.000013 0.000017 1.000000
111.899345 162.699249 0.209371 -0.000507 0.000017 1.000000
86.499054 162.699066 0.208457 -0.000431 0.000017 1.000000
61.098915 162.699051 0.201684 -0.000074 0.000017 1.000000
35.700047 162.699265 0.203943 0.000063 0.000017 1.000000
10.298807 162.699280 0.198482 0.000063 0.000017 1.000000
264.298828 137.298660 0.184527 -0.000006 0.000017 1.000000
238.899750 137.298874 0.187793 -0.000096 0.000017 1.000000
213.499191 137.298935 0.197347 0.000114 0.000017 1.000000
188.099030 137.298706 0.207450 -0.000262 0.000017 1.000000
162.699295 137.298782 0.206749 -0.000232 0.000017 1.000000
137.299179 137.298691 0.211755 -0.000013 0.000017 1.000000
111.899750 137.298798 0.207514 -0.000507 0.000017 1.000000
86.499229 137.298950 0.208767 -0.000431 0.000017 1.000000
61.099800 137.298813 0.204008 -0.000074 0.000017 1.000000
35.699913 137.298996 0.206725 0.000063 0.000017 1.000000
10.299141 137.299805 0.199890 0.000063 0.000017 1.000000
264.299561 111.900650 0.188651 -0.000006 0.000017 1.000000
238.899139 111.898979 0.195031 -0.000096 0.000017 1.000000
213.498840 111.899384 0.203730 0.000114 0.000017 1.000000
188.099243 111.899208 0.208614 -0.000262 0.000017 1.000000
162.698883 111.898842 0.216489 -0.000232 0.000017 1.000000
137.299286 111.899841 0.211058 -0.000013 0.000017 1.000000
111.899010 111.898819 0.223999 -0.000507 0.000017 1.000000
86.499184 111.899162 0.218049 -0.000431 0.000017 1.000000
61.099285 111.899033 0.210635 -0.000074 0.000017 1.000000
35.698849 111.898842 0.208501 0.000063 0.000017 1.000000
10.299569 111.899940 0.201940 0.000063 0.000017 1.000000
264.299530 86.500580 0.193508 -0.000006 0.000017 1.000000
238.898727 86.498817 0.201232 -0.000096 0.000017 1.000000
213.499680 86.499039 0.212920 0.000114 0.000017 1.000000
188.098953 86.499214 0.216737 -0.000262 0.000017 1.000000
162.699081 86.498802 0.222262 -0.000232 0.000017 1.000000
137.299255 86.499237 0.221042 -0.000013 0.000017 1.000000
111.899284 86.498962 0.225530 -0.000507 0.000017 1.000000
86.499771 86.499184 0.223669 -0.000431 0.000017 1.000000
61.099163 86.499268 0.216591 -0.000074 0.000017 1.000000
35.700066 86.498970 0.213326 0.000063 0.000017 1.000000
10.299603 86.499870 0.211619 0.000063 0.000017 1.000000
264.299622 61.100601 0.205750 -0.000006 0.000017 1.000000
238.899063 61.099400 0.217105 -0.000096 0.000017 1.000000
213.500076 61.099072 0.218998 0.000114 0.000017 1.000000
188.098892 61.099346 0.227759 -0.000262 0.000017 1.000000
162.699097 61.099178 0.238777 -0.000232 0.000017 1.000000
137.298874 61.099632 0.235482 -0.000013 0.000017 1.000000
111.899231 61.099274 0.241068 -0.000507 0.000017 1.000000
86.499184 61.099136 0.249706 -0.000431 0.000017 1.000000
61.098946 61.099060 0.228315 -0.000074 0.000017 1.000000
35.699448 61.099087 0.221236 0.000063 0.000017 1.000000
10.298923 61.099522 0.224960 0.000063 0.000017 1.000000
264.298950 35.700092 0.218573 -0.000006 0.000017 1.000000
238.899139 35.699268 0.224465 -0.000096 0.000017 1.000000
213.498993 35.699081 0.238993 0.000114 0.000017 1.000000
188.098969 35.698956 0.237743 -0.000262 0.000017 1.000000
162.698776 35.699032 0.247113 -0.000232 0.000017 1.000000
137.298950 35.699146 0.243636 -0.000013 0.000017 1.000000
111.899544 35.699051 0.247909 -0.000507 0.000017 1.000000
86.499107 35.699051 0.254685 -0.000431 0.000017 1.000000
61.100124 35.698898 0.231371 -0.000074 0.000017 1.000000
35.698997 35.699230 0.230854 0.000063 0.000017 1.000000
10.299554 35.699818 0.235738 0.000063 0.000017 1.000000
264.300140 10.300379 0.237651 -0.000006 0.000017 1.000000
238.899155 10.299203 0.249036 -0.000096 0.000017 1.000000
213.498993 10.299747 0.246352 0.000114 0.000017 1.000000
188.099228 10.299122 0.260941 -0.000262 0.000017 1.000000
162.698807 10.299212 0.270311 -0.000232 0.000017 1.000000
137.299454 10.300226 0.261187 -0.000013 0.000017 1.000000
111.899178 10.298897 0.266896 -0.000507 0.000017 1.000000
86.499268 10.300004 0.264639 -0.000431 0.000017 1.000000
61.099213 10.299338 0.251213 -0.000074 0.000017 1.000000
35.698776 10.299239 0.245263 0.000063 0.000017 1.000000
10.299728 10.299464 0.248621 0.000063 0.000017 1.000000
