264.299072 264.298615 0.180016 -0.000006 0.000017 1.000000
238.899368 264.298981 0.182062 -0.000096 0.000017 1.000000
213.498886 264.298889 0.194301 0.000114 0.000017 1.000000
188.099197 264.298828 0.195157 -0.000262 0.000017 1.000000
162.698837 264.298920 0.196288 -0.000232 0.000017 1.000000
137.299164 264.298920 0.193512 -0.000013 0.000017 1.000000
111.899460 264.298859 0.201569 -0.000507 0.000017 1.000000
86.499092 264.299347 0.196444 -0.000431 0.000017 1.000000
61.100037 264.298859 0.190372 -0.000074 0.000017 1.000000
35.699059 264.299042 0.194829 0.000063 0.000017 1.000000
10.299150 264.299927 0.192908 0.000063 0.000017 1.000000
264.299347 238.899658 0.180784 -0.000006 0.000017 1.000000
238.898941 238.898987 0.187042 -0.000096 0.000017 1.000000
213.498718 238.899124 0.186555 0.000114 0.000017 1.000000
188.098999 238.898972 0.196077 -0.000262 0.000017 1.000000
162.898804 238.898941 0.196129 -0.000232 0.000017 1.000000
137.299301 238.899368 0.193455 -0.000013 0.000017 1.000000
111.899017 238.898911 0.199713 -0.000507 0.000017 1.000000
86.499283 238.899109 0.198646 -0.000431 0.000017 1.000000
61.098988 238.899017 0.196237 -0.000074 0.000017 1.000000
35.698792 238.898911 0.191325 0.000063 0.000017 1.000000
10.299174 238.900253 0.188610 0.000063 0.000017 1.000000
264.299164 213.499786 0.173586 -0.000006 0.000017 1.000000
238.898743 213.498795 0.176152 -0.000096 0.000017 1.000000
213.499374 213.499008 0.186254 0.000114 0.000017 1.000000
188.098740 213.499191 0.192176 -0.000262 0.000017 1.000000
162.699234 213.498642 0.197426 -0.000232 0.000017 1.000000
137.299484 213.499313 0.190439 -0.000013 0.000017 1.000000
111.899292 213.498734 0.195995 -0.000507 0.000017 1.000000
86.499405 213.499054 0.199109 -0.000431 0.000017 1.000000
61.098953 213.498993 0.193587 -0.000074 0.000017 1.000000
35.699070 213.498856 0.194443 0.000063 0.000017 1.000000
10.299385 213.499969 0.186570 0.000063 0.000017 1.000000
264.299133 188.099930 0.171974 -0.000006 0.000017 1.000000
238.899002 188.099136 0.183237 -0.000096 0.000017 1.000000
213.499710 188.098892 0.186808 0.000114 0.000017 1.000000
188.098831 188.099197 0.195721 -0.000262 0.000017 1.000000
162.699265 188.098740 0.195051 -0.000232 0.000017 1.000000
137.298813 188.099136 0.196029 -0.000013 0.000017 1.000000
111.899338 188.099121 0.200882 -0.000507 0.000017 1.000000
86.499031 188.098907 0.197191 -0.000431 0.000017 1.000000
61.098820 188.099167 0.194080 -0.000074 0.000017 1.000000
35.699089 188.099136 0.192067 0.000063 0.000017 1.000000
10.298788 188.099670 0.187582 0.000063 0.000017 1.000000
264.298737 162.698990 0.179304 -0.000006 0.000017 1.000000
238.899033 162.699173 0.178755 -0.000096 0.000017 1.000000
213.498779 162.699051 0.186417 0.000114 0.000017 1.000000
188.098862 162.698975 0.195360 -0.000262 0.000017 1.000000
162.699127 162.698929 0.198382 -0.000232 0.000017 1.000000
137.298920 162.698898 0.198872 -0.000013 0.000017 1.000000
111.899498 162.699005 0.203725 -0.000507 0.000017 1.000000
86.499207 162.699127 0.203056 -0.000431 0.000017 1.000000
61.099224 162.699051 0.195183 -0.000074 0.000017 1.000000
35.699570 162.699265 0.193720 0.000063 0.000017 1.000000
10.299184 162.699921 0.188350 0.000063 0.000017 1.000000
264.299622 137.299850 0.181169 -0.000006 0.000017 1.000000
238.899277 137.299088 0.184742 -0.000096 0.000017 1.000000
213.499039 137.299438 0.191091 0.000114 0.000017 1.000000
188.099274 137.299103 0.200278 -0.000262 0.000017 1.000000
162.699066 137.299088 0.200493 -0.000232 0.000017 1.000000
137.299240 137.299835 0.200372 -0.000013 0.000017 1.000000
111.899284 137.298950 0.201899 -0.000507 0.000017 1.000000
86.499153 137.299438 0.207913 -0.000431 0.000017 1.000000
61.098942 137.299057 0.204863 -0.000074 0.000017 1.000000
35.698746 137.298996 0.205474 0.000063 0.000017 1.000000
10.299047 137.300262 0.192261 0.000063 0.000017 1.000000
264.299042 111.900482 0.183402 -0.000006 0.000017 1.000000
238.898758 111.898903 0.187219 -0.000096 0.000017 1.000000
213.498917 111.899132 0.192866 0.000114 0.000017 1.000000
188.098816 111.898964 0.201962 -0.000262 0.000017 1.000000
162.699020 111.898743 0.203214 -0.000232 0.000017 1.000000
137.299362 111.899452 0.204955 -0.000013 0.000017 1.000000
111.899162 111.898895 0.207825 -0.000507 0.000017 1.000000
86.499336 111.898918 0.209535 -0.000431 0.000017 1.000000
61.098816 111.899109 0.205264 -0.000074 0.000017 1.000000
35.698845 111.898842 0.202580 0.000063 0.000017 1.000000
10.299873 111.900085 0.197789 0.000063 0.000017 1.000000
264.299469 86.500580 0.195766 -0.000006 0.000017 1.000000
238.899048 86.499199 0.203184 -0.000096 0.000017 1.000000
213.500458 86.499016 0.204650 0.000114 0.000017 1.000000
188.098877 86.499367 0.212220 -0.000262 0.000017 1.000000
162.699142 86.498947 0.211703 -0.000232 0.000017 1.000000
137.299179 86.499382 0.212986 -0.000013 0.000017 1.000000
111.899200 86.499428 0.216222 -0.000507 0.000017 1.000000
86.499382 86.499260 0.217413 -0.000431 0.000017 1.000000
61.098846 86.499184 0.211373 -0.000074 0.000017 1.000000
35.699276 86.499115 0.207925 0.000063 0.000017 1.000000
10.298900 86.499786 0.206401 0.000063 0.000017 1.000000
264.298615 61.100056 0.210268 -0.000006 0.000017 1.000000
238.898849 61.099323 0.217655 -0.000096 0.000017 1.000000
213.498749 61.098995 0.220800 0.000114 0.000017 1.000000
188.099060 61.098949 0.228461 -0.000262 0.000017 1.000000
162.698853 61.099098 0.228309 -0.000232 0.000017 1.000000
137.298798 61.099232 0.228433 -0.000013 0.000017 1.000000
111.899147 61.099041 0.230448 -0.000507 0.000017 1.000000
86.498932 61.099041 0.235729 -0.000431 0.000017 1.000000
61.099182 61.098907 0.227125 -0.000074 0.000017 1.000000
35.699364 61.099087 0.219893 0.000063 0.000017 1.000000
10.299003 61.099678 0.225967 0.000063 0.000017 1.000000
264.299286 35.700169 0.223639 -0.000006 0.000017 1.000000
238.899246 35.699268 0.228218 -0.000096 0.000017 1.000000
213.499390 35.699402 0.234445 0.000114 0.000017 1.000000
188.099228 35.698959 0.243205 -0.000262 0.000017 1.000000
162.698853 35.699181 0.242505 -0.000232 0.000017 1.000000
137.299377 35.700096 0.251752 -0.000013 0.000017 1.000000
111.899307 35.698956 0.240036 -0.000507 0.000017 1.000000
86.499023 35.699825 0.246384 -0.000431 0.000017 1.000000
61.099594 35.699051 0.238878 -0.000074 0.000017 1.000000
35.698853 35.699158 0.240528 0.000063 0.000017 1.000000
10.299084 35.700203 0.236897 0.000063 0.000017 1.000000
264.299194 10.300526 0.224987 -0.000006 0.000017 1.000000
238.898682 10.299030 0.236311 -0.000096 0.000017 1.000000
213.499100 10.299295 0.262679 0.000114 0.000017 1.000000
188.098816 10.298946 0.242814 -0.000262 0.000017 1.000000
162.698868 10.298964 0.258898 -0.000232 0.000017 1.000000
137.299118 10.299975 0.244098 -0.000013 0.000017 1.000000
111.899094 10.298723 0.253011 -0.000507 0.000017 1.000000
86.499268 10.299068 0.252157 -0.000431 0.000017 1.000000
61.098972 10.299259 0.245903 -0.000074 0.000017 1.000000
35.699009 10.299068 0.239343 0.000063 0.000017 1.000000
10.299399 10.299213 0.232294 0.000063 0.000017 1.000000
