264.298828 264.298706 0.178918 -0.000006 0.000017 1.000000
238.899185 264.299042 0.172052 -0.000096 0.000017 1.000000
213.499130 264.298981 0.185787 0.000114 0.000017 1.000000
188.099030 264.298889 0.185788 -0.000262 0.000017 1.000000
162.698990 264.298981 0.187682 -0.000232 0.000017 1.000000
137.299011 264.298981 0.185455 -0.000013 0.000017 1.000000
111.899445 264.299072 0.193513 -0.000507 0.000017 1.000000
86.499146 264.299408 0.188082 -0.000431 0.000017 1.000000
61.099865 264.298889 0.183811 -0.000074 0.000017 1.000000
35.700077 264.299042 0.191228 0.000063 0.000017 1.000000
10.299241 264.299988 0.196020 0.000063 0.000017 1.000000
264.299652 238.899506 0.177823 -0.000006 0.000017 1.000000
238.899323 238.898987 0.178680 -0.000096 0.000017 1.000000
213.499084 238.899216 0.183045 0.000114 0.000017 1.000000
188.099640 238.899063 0.201540 -0.000262 0.000017 1.000000
162.898697 238.899109 0.187218 -0.000232 0.000017 1.000000
137.299133 238.899826 0.186528 -0.000013 0.000017 1.000000
111.899162 238.899063 0.194891 -0.000507 0.000017 1.000000
86.499344 238.899628 0.194679 -0.000431 0.000017 1.000000
61.099686 238.899170 0.188759 -0.000074 0.000017 1.000000
35.698868 238.899155 0.192332 0.000063 0.000017 1.000000
10.299094 238.900558 0.185558 0.000063 0.000017 1.000000
264.299042 213.500244 0.170535 -0.000006 0.000017 1.000000
238.898575 213.498947 0.174351 -0.000096 0.000017 1.000000
213.498825 213.499161 0.181890 0.000114 0.000017 1.000000
188.098953 213.499191 0.186164 -0.000262 0.000017 1.000000
162.698929 213.498795 0.191811 -0.000232 0.000017 1.000000
137.299408 213.499466 0.185892 -0.000013 0.000017 1.000000
111.899132 213.498810 0.194194 -0.000507 0.000017 1.000000
86.499390 213.498962 0.194836 -0.000431 0.000017 1.000000
61.098797 213.499069 0.188277 -0.000074 0.000017 1.000000
35.698757 213.498764 0.191635 0.000063 0.000017 1.000000
10.299933 213.499924 0.188675 0.000063 0.000017 1.000000
264.299255 188.100174 0.168769 -0.000006 0.000017 1.000000
238.899078 188.099045 0.176279 -0.000096 0.000017 1.000000
213.500626 188.099045 0.181803 0.000114 0.000017 1.000000
188.099060 188.099335 0.191174 -0.000262 0.000017 1.000000
162.699646 188.098740 0.191938 -0.000232 0.000017 1.000000
137.299591 188.099380 0.190474 -0.000013 0.000017 1.000000
111.899391 188.099121 0.198319 -0.000507 0.000017 1.000000
86.499420 188.099152 0.192583 -0.000431 0.000017 1.000000
61.098896 188.099350 0.190814 -0.000074 0.000017 1.000000
35.699715 188.099228 0.190510 0.000063 0.000017 1.000000
10.299014 188.099976 0.185293 0.000063 0.000017 1.000000
264.298889 162.699539 0.176984 -0.000006 0.000017 1.000000
238.899017 162.699387 0.176192 -0.000096 0.000017 1.000000
213.498932 162.699188 0.181320 0.000114 0.000017 1.000000
188.098938 162.699280 0.192888 -0.000262 0.000017 1.000000
162.699203 162.699020 0.196429 -0.000232 0.000017 1.000000
137.298767 162.699051 0.198964 -0.000013 0.000017 1.000000
111.899406 162.699219 0.197805 -0.000507 0.000017 1.000000
86.498962 162.699066 0.197196 -0.000431 0.000017 1.000000
61.098984 162.699203 0.192681 -0.000074 0.000017 1.000000
35.699413 162.699249 0.190027 0.000063 0.000017 1.000000
10.299032 162.699829 0.193263 0.000063 0.000017 1.000000
264.299072 137.299301 0.176104 -0.000006 0.000017 1.000000
238.899506 137.299118 0.180591 -0.000096 0.000017 1.000000
213.499268 137.299286 0.188893 0.000114 0.000017 1.000000
188.099274 137.299103 0.200827 -0.000262 0.000017 1.000000
162.699371 137.299088 0.198875 -0.000232 0.000017 1.000000
137.299545 137.299530 0.201440 -0.000013 0.000017 1.000000
111.899818 137.299042 0.200282 -0.000507 0.000017 1.000000
86.499153 137.299576 0.203701 -0.000431 0.000017 1.000000
61.099323 137.299118 0.196287 -0.000074 0.000017 1.000000
35.699051 137.299225 0.194671 0.000063 0.000017 1.000000
10.299197 137.300415 0.191956 0.000063 0.000017 1.000000
264.299255 111.900703 0.176627 -0.000006 0.000017 1.000000
238.898911 111.899055 0.186212 -0.000096 0.000017 1.000000
213.498917 111.899452 0.191065 0.000114 0.000017 1.000000
188.098984 111.899269 0.200405 -0.000262 0.000017 1.000000
162.698868 111.898972 0.201810 -0.000232 0.000017 1.000000
137.299271 111.900139 0.200194 -0.000013 0.000017 1.000000
111.899086 111.898895 0.208374 -0.000507 0.000017 1.000000
86.499344 111.899147 0.212037 -0.000431 0.000017 1.000000
61.098965 111.899101 0.202426 -0.000074 0.000017 1.000000
35.698772 111.898918 0.202946 0.000063 0.000017 1.000000
10.299565 111.900146 0.196691 0.000063 0.000017 1.000000
264.299683 86.500572 0.190914 -0.000006 0.000017 1.000000
238.898880 86.498878 0.199217 -0.000096 0.000017 1.000000
213.499985 86.499001 0.201232 0.000114 0.000017 1.000000
188.099121 86.499199 0.208314 -0.000262 0.000017 1.000000
162.699051 86.498703 0.208346 -0.000232 0.000017 1.000000
137.299255 86.499611 0.214420 -0.000013 0.000017 1.000000
111.899284 86.499268 0.218114 -0.000507 0.000017 1.000000
86.499687 86.499176 0.213995 -0.000431 0.000017 1.000000
61.099079 86.499336 0.207375 -0.000074 0.000017 1.000000
35.700138 86.499023 0.207711 0.000063 0.000017 1.000000
10.299521 86.500092 0.202647 0.000063 0.000017 1.000000
264.299072 61.100677 0.202607 -0.000006 0.000017 1.000000
238.898972 61.099777 0.208682 -0.000096 0.000017 1.000000
213.499512 61.099358 0.210637 0.000114 0.000017 1.000000
188.098892 61.099648 0.218634 -0.000262 0.000017 1.000000
162.699234 61.099171 0.221900 -0.000232 0.000017 1.000000
137.298798 61.099934 0.233376 -0.000013 0.000017 1.000000
111.899292 61.099346 0.226084 -0.000507 0.000017 1.000000
86.499001 61.099190 0.230053 -0.000431 0.000017 1.000000
61.098942 61.099136 0.220563 -0.000074 0.000017 1.000000
35.699520 61.099159 0.213728 0.000063 0.000017 1.000000
10.298915 61.099594 0.211594 0.000063 0.000017 1.000000
264.298950 35.700470 0.215216 -0.000006 0.000017 1.000000
238.899536 35.699493 0.222359 -0.000096 0.000017 1.000000
213.499069 35.699383 0.227976 0.000114 0.000017 1.000000
188.099121 35.699108 0.233684 -0.000262 0.000017 1.000000
162.698868 35.699165 0.238355 -0.000232 0.000017 1.000000
137.299194 35.699619 0.238173 -0.000013 0.000017 1.000000
111.899460 35.699036 0.243850 -0.000507 0.000017 1.000000
86.499245 35.699409 0.240311 -0.000431 0.000017 1.000000
61.100060 35.698975 0.239244 -0.000074 0.000017 1.000000
35.699467 35.699226 0.227161 0.000063 0.000017 1.000000
10.299470 35.700195 0.223164 0.000063 0.000017 1.000000
264.299896 10.300605 0.231639 -0.000006 0.000017 1.000000
238.899155 10.299263 0.245832 -0.000096 0.000017 1.000000
213.499222 10.299974 0.245406 0.000114 0.000017 1.000000
188.099152 10.299254 0.249924 -0.000262 0.000017 1.000000
162.698868 10.299285 0.262743 -0.000232 0.000017 1.000000
137.299438 10.300376 0.253008 -0.000013 0.000017 1.000000
111.899017 10.299123 0.260121 -0.000507 0.000017 1.000000
86.499191 10.300460 0.258932 -0.000431 0.000017 1.000000
61.099133 10.299412 0.246208 -0.000074 0.000017 1.000000
35.698772 10.299299 0.242608 0.000063 0.000017 1.000000
10.299779 10.299366 0.231928 0.000063 0.000017 1.000000
