264.299316 264.299255 0.182976 -0.000006 0.000017 1.000000
238.900146 264.298889 0.189233 -0.000096 0.000017 1.000000
213.499283 264.299042 0.185878 0.000114 0.000017 1.000000
188.099121 264.299133 0.192868 -0.000262 0.000017 1.000000
162.698914 264.298676 0.200041 -0.000232 0.000017 1.000000
137.298859 264.299377 0.197265 -0.000013 0.000017 1.000000
111.899139 264.298920 0.200379 -0.000507 0.000017 1.000000
86.499168 264.299042 0.199954 -0.000431 0.000017 1.000000
61.099174 264.299103 0.188724 -0.000074 0.000017 1.000000
35.699055 264.298737 0.191930 0.000063 0.000017 1.000000
10.298921 264.299591 0.193366 0.000063 0.000017 1.000000
264.299042 238.899200 0.186735 -0.000006 0.000017 1.000000
238.898941 238.898834 0.187591 -0.000096 0.000017 1.000000
213.498871 238.898758 0.189057 0.000114 0.000017 1.000000
188.099243 238.899002 0.195192 -0.000262 0.000017 1.000000
162.898880 238.898636 0.198540 -0.000232 0.000017 1.000000
137.299454 238.898880 0.196110 -0.000013 0.000017 1.000000
111.899025 238.899002 0.201208 -0.000507 0.000017 1.000000
86.499268 238.898926 0.195778 -0.000431 0.000017 1.000000
61.099297 238.899109 0.189919 -0.000074 0.000017 1.000000
35.698944 238.898911 0.193675 0.000063 0.000017 1.000000
10.299875 238.899612 0.187297 0.000063 0.000017 1.000000
264.300812 213.499237 0.179750 -0.000006 0.000017 1.000000
238.899063 213.499100 0.182713 -0.000096 0.000017 1.000000
213.499908 213.499008 0.186101 0.000114 0.000017 1.000000
188.099045 213.499130 0.199744 -0.000262 0.000017 1.000000
162.699158 213.498962 0.198464 -0.000232 0.000017 1.000000
137.299881 213.499161 0.193155 -0.000013 0.000017 1.000000
111.899231 213.498978 0.202159 -0.000507 0.000017 1.000000
86.499237 213.499115 0.196545 -0.000431 0.000017 1.000000
61.098793 213.498840 0.193892 -0.000074 0.000017 1.000000
35.698833 213.498917 0.192490 0.000063 0.000017 1.000000
10.299141 213.499725 0.186967 0.000063 0.000017 1.000000
264.298950 188.099228 0.176033 -0.000006 0.000017 1.000000
238.899002 188.098892 0.185342 -0.000096 0.000017 1.000000
213.499557 188.099045 0.184550 0.000114 0.000017 1.000000
188.098831 188.098801 0.193371 -0.000262 0.000017 1.000000
162.699112 188.098801 0.200270 -0.000232 0.000017 1.000000
137.299118 188.099045 0.196822 -0.000013 0.000017 1.000000
111.899254 188.098816 0.200822 -0.000507 0.000017 1.000000
86.499107 188.099152 0.194994 -0.000431 0.000017 1.000000
61.098972 188.099014 0.194782 -0.000074 0.000017 1.000000
35.700577 188.099075 0.191913 0.000063 0.000017 1.000000
10.299244 188.100281 0.184225 0.000063 0.000017 1.000000
264.299286 162.700302 0.178937 -0.000006 0.000017 1.000000
238.899658 162.698990 0.182204 -0.000096 0.000017 1.000000
213.500107 162.699188 0.182662 0.000114 0.000017 1.000000
188.099014 162.699341 0.196611 -0.000262 0.000017 1.000000
162.699356 162.698868 0.199237 -0.000232 0.000017 1.000000
137.298996 162.699753 0.199024 -0.000013 0.000017 1.000000
111.899338 162.699066 0.203817 -0.000507 0.000017 1.000000
86.499039 162.699188 0.197593 -0.000431 0.000017 1.000000
61.099060 162.699265 0.191826 -0.000074 0.000017 1.000000
35.698940 162.699051 0.191279 0.000063 0.000017 1.000000
10.298861 162.699829 0.184993 0.000063 0.000017 1.000000
264.298920 137.299911 0.181719 -0.000006 0.000017 1.000000
238.898956 137.299026 0.184284 -0.000096 0.000017 1.000000
213.498734 137.298981 0.187643 0.000114 0.000017 1.000000
188.098953 137.299316 0.198386 -0.000262 0.000017 1.000000
162.698914 137.298782 0.203942 -0.000232 0.000017 1.000000
137.299179 137.299179 0.213159 -0.000013 0.000017 1.000000
111.899208 137.299042 0.202296 -0.000507 0.000017 1.000000
86.499229 137.298782 0.203366 -0.000431 0.000017 1.000000
61.099247 137.298965 0.198393 -0.000074 0.000017 1.000000
35.698734 137.298981 0.199676 0.000063 0.000017 1.000000
10.299841 137.299500 0.194122 0.000063 0.000017 1.000000
264.300446 111.899628 0.185599 -0.000006 0.000017 1.000000
238.899078 111.899208 0.187310 -0.000096 0.000017 1.000000
213.500244 111.899139 0.198511 0.000114 0.000017 1.000000
188.099213 111.899193 0.200344 -0.000262 0.000017 1.000000
162.699020 111.898972 0.207303 -0.000232 0.000017 1.000000
137.299591 111.899284 0.208006 -0.000013 0.000017 1.000000
111.899162 111.899139 0.208862 -0.000507 0.000017 1.000000
86.499496 111.899391 0.213990 -0.000431 0.000017 1.000000
61.098888 111.899025 0.202365 -0.000074 0.000017 1.000000
35.698772 111.899147 0.204442 0.000063 0.000017 1.000000
10.299397 111.899521 0.193120 0.000063 0.000017 1.000000
264.299225 86.500351 0.192257 -0.000006 0.000017 1.000000
238.898804 86.498970 0.197875 -0.000096 0.000017 1.000000
213.499512 86.499252 0.207000 0.000114 0.000017 1.000000
188.098877 86.498817 0.212617 -0.000262 0.000017 1.000000
162.699081 86.498871 0.215304 -0.000232 0.000017 1.000000
137.299103 86.499229 0.215488 -0.000013 0.000017 1.000000
111.899200 86.498955 0.216619 -0.000507 0.000017 1.000000
86.499405 86.499344 0.246008 -0.000431 0.000017 1.000000
61.099007 86.498863 0.209328 -0.000074 0.000017 1.000000
35.700291 86.498886 0.210030 0.000063 0.000017 1.000000
10.299293 86.499695 0.200541 0.000063 0.000017 1.000000
264.299377 61.100510 0.198640 -0.000006 0.000017 1.000000
238.899918 61.099094 0.215396 -0.000096 0.000017 1.000000
213.500244 61.099224 0.213139 0.000114 0.000017 1.000000
188.098892 61.099251 0.218451 -0.000262 0.000017 1.000000
162.699326 61.099018 0.224311 -0.000232 0.000017 1.000000
137.299026 61.100403 0.223214 -0.000013 0.000017 1.000000
111.899529 61.099117 0.224680 -0.000507 0.000017 1.000000
86.499161 61.099281 0.222454 -0.000431 0.000017 1.000000
61.099258 61.099213 0.227521 -0.000074 0.000017 1.000000
35.699207 61.099007 0.216323 0.000063 0.000017 1.000000
10.298915 61.099991 0.209335 0.000063 0.000017 1.000000
264.298798 35.700546 0.212409 -0.000006 0.000017 1.000000
238.898911 35.699188 0.222817 -0.000096 0.000017 1.000000
213.498840 35.699001 0.222513 0.000114 0.000017 1.000000
188.098969 35.699272 0.228374 -0.000262 0.000017 1.000000
162.698624 35.698936 0.241254 -0.000232 0.000017 1.000000
137.299026 35.699223 0.236555 -0.000013 0.000017 1.000000
111.899300 35.698956 0.237136 -0.000507 0.000017 1.000000
86.499168 35.698723 0.237504 -0.000431 0.000017 1.000000
61.099346 35.699047 0.229723 -0.000074 0.000017 1.000000
35.699299 35.698982 0.225239 0.000063 0.000017 1.000000
10.299621 35.699646 0.218404 0.000063 0.000017 1.000000
264.299835 10.300299 0.229137 -0.000006 0.000017 1.000000
238.899170 10.299354 0.245130 -0.000096 0.000017 1.000000
213.500015 10.299045 0.246504 0.000114 0.000017 1.000000
188.099152 10.299180 0.253281 -0.000262 0.000017 1.000000
162.698792 10.299116 0.259081 -0.000232 0.000017 1.000000
137.299973 10.299660 0.254473 -0.000013 0.000017 1.000000
111.899170 10.299122 0.258626 -0.000507 0.000017 1.000000
86.499352 10.300156 0.260488 -0.000431 0.000017 1.000000
61.099209 10.299185 0.249351 -0.000074 0.000017 1.000000
35.698849 10.299543 0.243798 0.000063 0.000017 1.000000
10.299398 10.299366 0.231684 0.000063 0.000017 1.000000
