264.299011 264.298706 0.179772 -0.000006 0.000017 1.000000
238.899689 264.298798 0.184564 -0.000096 0.000017 1.000000
213.499207 264.298981 0.195949 0.000114 0.000017 1.000000
188.099274 264.298889 0.196255 -0.000262 0.000017 1.000000
162.698990 264.298767 0.201048 -0.000232 0.000017 1.000000
137.299194 264.299103 0.218170 -0.000013 0.000017 1.000000
111.899544 264.298767 0.202271 -0.000507 0.000017 1.000000
86.499229 264.299347 0.196688 -0.000431 0.000017 1.000000
61.099339 264.298950 0.190128 -0.000074 0.000017 1.000000
35.699062 264.298889 0.195135 0.000063 0.000017 1.000000
10.299155 264.300079 0.198767 0.000063 0.000017 1.000000
264.299133 238.899902 0.182737 -0.000006 0.000017 1.000000
238.899017 238.898834 0.183441 -0.000096 0.000017 1.000000
213.498795 238.898972 0.185609 0.000114 0.000017 1.000000
188.099075 238.899002 0.194979 -0.000262 0.000017 1.000000
162.898560 238.898727 0.199791 -0.000232 0.000017 1.000000
137.299149 238.899124 0.191747 -0.000013 0.000017 1.000000
111.899086 238.899002 0.196204 -0.000507 0.000017 1.000000
86.499268 238.899017 0.194679 -0.000431 0.000017 1.000000
61.098991 238.899170 0.191873 -0.000074 0.000017 1.000000
35.698795 238.898849 0.196330 0.000063 0.000017 1.000000
10.299652 238.899704 0.191966 0.000063 0.000017 1.000000
264.299866 213.499084 0.174654 -0.000006 0.000017 1.000000
238.898911 213.498886 0.180119 -0.000096 0.000017 1.000000
213.498978 213.498856 0.188848 0.000114 0.000017 1.000000
188.098969 213.499130 0.196326 -0.000262 0.000017 1.000000
162.699310 213.498657 0.199471 -0.000232 0.000017 1.000000
137.299332 213.498947 0.191446 -0.000013 0.000017 1.000000
111.899208 213.498917 0.195293 -0.000507 0.000017 1.000000
86.499390 213.498749 0.197095 -0.000431 0.000017 1.000000
61.098801 213.498993 0.198439 -0.000074 0.000017 1.000000
35.698757 213.498947 0.197739 0.000063 0.000017 1.000000
10.299089 213.499680 0.198747 0.000063 0.000017 1.000000
264.298889 188.099091 0.179085 -0.000006 0.000017 1.000000
238.898849 188.099045 0.180093 -0.000096 0.000017 1.000000
213.498917 188.098892 0.188853 0.000114 0.000017 1.000000
188.098755 188.098892 0.194470 -0.000262 0.000017 1.000000
162.699112 188.098892 0.201460 -0.000232 0.000017 1.000000
137.298737 188.098740 0.198837 -0.000013 0.000017 1.000000
111.899254 188.098816 0.198868 -0.000507 0.000017 1.000000
86.499039 188.098999 0.199206 -0.000431 0.000017 1.000000
61.098827 188.098862 0.199085 -0.000074 0.000017 1.000000
35.699875 188.099075 0.200184 0.000063 0.000017 1.000000
10.298948 188.099762 0.195700 0.000063 0.000017 1.000000
264.299133 162.699051 0.178602 -0.000006 0.000017 1.000000
238.899734 162.698929 0.183546 -0.000096 0.000017 1.000000
213.499481 162.699203 0.187332 0.000114 0.000017 1.000000
188.099243 162.698944 0.199663 -0.000262 0.000017 1.000000
162.699585 162.698868 0.200183 -0.000232 0.000017 1.000000
137.299164 162.699234 0.206593 -0.000013 0.000017 1.000000
111.899315 162.698975 0.267080 -0.000507 0.000017 1.000000
86.499046 162.699371 0.200645 -0.000431 0.000017 1.000000
61.099144 162.699051 0.196679 -0.000074 0.000017 1.000000
35.698875 162.699112 0.201685 0.000063 0.000017 1.000000
10.298812 162.700470 0.201137 0.000063 0.000017 1.000000
264.298767 137.300461 0.179216 -0.000006 0.000017 1.000000
238.898972 137.298935 0.186451 -0.000096 0.000017 1.000000
213.498886 137.298889 0.191640 0.000114 0.000017 1.000000
188.099030 137.299316 0.198477 -0.000262 0.000017 1.000000
162.698914 137.298721 0.206841 -0.000232 0.000017 1.000000
137.299103 137.299179 0.209894 -0.000013 0.000017 1.000000
111.899208 137.298889 0.205897 -0.000507 0.000017 1.000000
86.499153 137.298798 0.211911 -0.000431 0.000017 1.000000
61.098934 137.298965 0.200956 -0.000074 0.000017 1.000000
35.698738 137.298843 0.203186 0.000063 0.000017 1.000000
10.299850 137.299744 0.203491 0.000063 0.000017 1.000000
264.299744 111.899780 0.191398 -0.000006 0.000017 1.000000
238.898911 111.899055 0.187860 -0.000096 0.000017 1.000000
213.500397 111.898979 0.193109 0.000114 0.000017 1.000000
188.099136 111.899193 0.203060 -0.000262 0.000017 1.000000
162.699020 111.898880 0.204954 -0.000232 0.000017 1.000000
137.299438 111.899132 0.209166 -0.000013 0.000017 1.000000
111.899162 111.899124 0.208679 -0.000507 0.000017 1.000000
86.499496 111.899071 0.213594 -0.000431 0.000017 1.000000
61.098808 111.899025 0.202060 -0.000074 0.000017 1.000000
35.699169 111.899071 0.210392 0.000063 0.000017 1.000000
10.299182 111.899620 0.210668 0.000063 0.000017 1.000000
264.299133 86.499702 0.189053 -0.000006 0.000017 1.000000
238.898895 86.498955 0.195158 -0.000096 0.000017 1.000000
213.499115 86.499077 0.198730 0.000114 0.000017 1.000000
188.098953 86.498894 0.207917 -0.000262 0.000017 1.000000
162.699081 86.498947 0.215060 -0.000232 0.000017 1.000000
137.298782 86.499062 0.216587 -0.000013 0.000017 1.000000
111.899284 86.498962 0.223485 -0.000507 0.000017 1.000000
86.499222 86.499161 0.214362 -0.000431 0.000017 1.000000
61.099003 86.498787 0.210518 -0.000074 0.000017 1.000000
35.699982 86.498947 0.211434 0.000063 0.000017 1.000000
10.299133 86.499771 0.210215 0.000063 0.000017 1.000000
264.299316 61.100433 0.201295 -0.000006 0.000017 1.000000
238.900223 61.099075 0.205874 -0.000096 0.000017 1.000000
213.499588 61.099281 0.210331 0.000114 0.000017 1.000000
188.099045 61.099102 0.220801 -0.000262 0.000017 1.000000
162.699020 61.099083 0.228218 -0.000232 0.000017 1.000000
137.298950 61.100636 0.226967 -0.000013 0.000017 1.000000
111.899139 61.099041 0.226481 -0.000507 0.000017 1.000000
86.499161 61.099190 0.225414 -0.000431 0.000017 1.000000
61.099255 61.099133 0.217755 -0.000074 0.000017 1.000000
35.698975 61.098991 0.217330 0.000063 0.000017 1.000000
10.298906 61.100220 0.216202 0.000063 0.000017 1.000000
264.299133 35.700554 0.232855 -0.000006 0.000017 1.000000
238.898987 35.699177 0.224373 -0.000096 0.000017 1.000000
213.498917 35.699001 0.226267 0.000114 0.000017 1.000000
188.098969 35.699108 0.233379 -0.000262 0.000017 1.000000
162.698868 35.698860 0.240003 -0.000232 0.000017 1.000000
137.299194 35.699223 0.236860 -0.000013 0.000017 1.000000
111.899071 35.698788 0.239090 -0.000507 0.000017 1.000000
86.499321 35.698879 0.242112 -0.000431 0.000017 1.000000
61.099815 35.699036 0.232317 -0.000074 0.000017 1.000000
35.699314 35.698986 0.229908 0.000063 0.000017 1.000000
10.299858 35.699574 0.227528 0.000063 0.000017 1.000000
264.300049 10.300360 0.228740 -0.000006 0.000017 1.000000
238.899002 10.299336 0.239912 -0.000096 0.000017 1.000000
213.499939 10.299104 0.242537 0.000114 0.000017 1.000000
188.098892 10.299253 0.247574 -0.000262 0.000017 1.000000
162.698868 10.299117 0.262835 -0.000232 0.000017 1.000000
137.299042 10.299584 0.257373 -0.000013 0.000017 1.000000
111.899071 10.299102 0.246907 -0.000507 0.000017 1.000000
86.499184 10.299679 0.252218 -0.000431 0.000017 1.000000
61.098816 10.299184 0.248100 -0.000074 0.000017 1.000000
35.699238 10.299297 0.238458 0.000063 0.000017 1.000000
10.299159 10.299123 0.235346 0.000063 0.000017 1.000000
