264.299622 264.299103 0.180870 -0.000006 0.000017 1.000000
238.898972 264.298889 0.176905 -0.000096 0.000017 1.000000
213.500458 264.298889 0.189692 0.000114 0.000017 1.000000
188.099030 264.299042 0.188260 -0.000262 0.000017 1.000000
162.699387 264.298645 0.190642 -0.000232 0.000017 1.000000
137.299942 264.299225 0.185760 -0.000013 0.000017 1.000000
111.899300 264.298920 0.198121 -0.000507 0.000017 1.000000
86.499382 264.298950 0.193484 -0.000431 0.000017 1.000000
61.099022 264.299103 0.189518 -0.000074 0.000017 1.000000
35.700077 264.298828 0.190831 0.000063 0.000017 1.000000
10.299077 264.299683 0.199378 0.000063 0.000017 1.000000
264.298889 238.899445 0.182523 -0.000006 0.000017 1.000000
238.899094 238.899139 0.189788 -0.000096 0.000017 1.000000
213.499084 238.898972 0.183198 0.000114 0.000017 1.000000
188.099091 238.899063 0.190035 -0.000262 0.000017 1.000000
162.899109 238.898880 0.197533 -0.000232 0.000017 1.000000
137.298965 238.899033 0.189336 -0.000013 0.000017 1.000000
111.899246 238.899155 0.194800 -0.000507 0.000017 1.000000
86.499107 238.899170 0.193885 -0.000431 0.000017 1.000000
61.099373 238.899017 0.189065 -0.000074 0.000017 1.000000
35.699963 238.899078 0.198679 0.000063 0.000017 1.000000
10.299497 238.899307 0.190410 0.000063 0.000017 1.000000
264.299866 213.498993 0.177859 -0.000006 0.000017 1.000000
238.899765 213.498947 0.180668 -0.000096 0.000017 1.000000
213.498978 213.499069 0.184301 0.000114 0.000017 1.000000
188.099289 213.498947 0.194434 -0.000262 0.000017 1.000000
162.699081 213.498886 0.193917 -0.000232 0.000017 1.000000
137.299515 213.499252 0.207132 -0.000013 0.000017 1.000000
111.899231 213.498825 0.201671 -0.000507 0.000017 1.000000
86.499237 213.499054 0.196698 -0.000431 0.000017 1.000000
61.099030 213.498917 0.190474 -0.000074 0.000017 1.000000
35.698757 213.498764 0.194595 0.000063 0.000017 1.000000
10.299470 213.499924 0.200058 0.000063 0.000017 1.000000
264.299286 188.099991 0.175178 -0.000006 0.000017 1.000000
238.898773 188.098892 0.180795 -0.000096 0.000017 1.000000
213.500015 188.098984 0.185099 0.000114 0.000017 1.000000
188.099060 188.099106 0.191876 -0.000262 0.000017 1.000000
162.699341 188.098648 0.196852 -0.000232 0.000017 1.000000
137.300293 188.099289 0.197218 -0.000013 0.000017 1.000000
111.899193 188.098984 0.222764 -0.000507 0.000017 1.000000
86.499657 188.099060 0.196947 -0.000431 0.000017 1.000000
61.099209 188.099411 0.194415 -0.000074 0.000017 1.000000
35.700104 188.099228 0.194264 0.000063 0.000017 1.000000
10.299021 188.100128 0.193045 0.000063 0.000017 1.000000
264.298889 162.699783 0.176282 -0.000006 0.000017 1.000000
238.898956 162.699387 0.182662 -0.000096 0.000017 1.000000
213.499115 162.698959 0.195694 0.000114 0.000017 1.000000
188.099091 162.699280 0.196092 -0.000262 0.000017 1.000000
162.699036 162.698959 0.196734 -0.000232 0.000017 1.000000
137.298782 162.699081 0.223408 -0.000013 0.000017 1.000000
111.899406 162.699158 0.197958 -0.000507 0.000017 1.000000
86.499046 162.699066 0.200004 -0.000431 0.000017 1.000000
61.099377 162.699051 0.198876 -0.000074 0.000017 1.000000
35.699493 162.699203 0.198877 0.000063 0.000017 1.000000
10.299204 162.699677 0.196529 0.000063 0.000017 1.000000
264.300171 137.299606 0.181261 -0.000006 0.000017 1.000000
238.899902 137.299088 0.183887 -0.000096 0.000017 1.000000
213.499039 137.299225 0.191243 0.000114 0.000017 1.000000
188.099258 137.299255 0.196982 -0.000262 0.000017 1.000000
162.699142 137.299088 0.200127 -0.000232 0.000017 1.000000
137.299622 137.299835 0.198327 -0.000013 0.000017 1.000000
111.899284 137.299042 0.201838 -0.000507 0.000017 1.000000
86.499306 137.299423 0.204556 -0.000431 0.000017 1.000000
61.098938 137.299118 0.199552 -0.000074 0.000017 1.000000
35.698734 137.299057 0.202423 0.000063 0.000017 1.000000
10.299143 137.300049 0.198883 0.000063 0.000017 1.000000
264.299255 111.900558 0.181632 -0.000006 0.000017 1.000000
238.898834 111.898903 0.188623 -0.000096 0.000017 1.000000
213.500244 111.899063 0.199213 0.000114 0.000017 1.000000
188.098907 111.899193 0.202846 -0.000262 0.000017 1.000000
162.699661 111.898895 0.209226 -0.000232 0.000017 1.000000
137.299438 111.899918 0.213011 -0.000013 0.000017 1.000000
111.899323 111.899048 0.208069 -0.000507 0.000017 1.000000
86.499413 111.899147 0.211824 -0.000431 0.000017 1.000000
61.099056 111.899261 0.211429 -0.000074 0.000017 1.000000
35.700176 111.899071 0.204532 0.000063 0.000017 1.000000
10.299022 111.900246 0.203100 0.000063 0.000017 1.000000
264.298920 86.499702 0.190762 -0.000006 0.000017 1.000000
238.899124 86.498726 0.201536 -0.000096 0.000017 1.000000
213.498886 86.498543 0.204437 0.000114 0.000017 1.000000
188.099197 86.498650 0.215821 -0.000262 0.000017 1.000000
162.698776 86.498703 0.218661 -0.000232 0.000017 1.000000
137.299103 86.498589 0.215336 -0.000013 0.000017 1.000000
111.899284 86.498863 0.217229 -0.000507 0.000017 1.000000
86.499222 86.498863 0.219214 -0.000431 0.000017 1.000000
61.100258 86.498787 0.211769 -0.000074 0.000017 1.000000
35.699429 86.498947 0.211984 0.000063 0.000017 1.000000
10.299774 86.499786 0.236246 0.000063 0.000017 1.000000
264.300568 61.099274 0.206208 -0.000006 0.000017 1.000000
238.899139 61.099247 0.214511 -0.000096 0.000017 1.000000
213.499146 61.099056 0.219395 0.000114 0.000017 1.000000
188.099045 61.098949 0.227850 -0.000262 0.000017 1.000000
162.699097 61.099251 0.231819 -0.000232 0.000017 1.000000
137.299026 61.099308 0.229684 -0.000013 0.000017 1.000000
111.899223 61.099045 0.233347 -0.000507 0.000017 1.000000
86.499237 61.099190 0.231121 -0.000431 0.000017 1.000000
61.098862 61.098892 0.225721 -0.000074 0.000017 1.000000
35.699287 61.099087 0.219435 0.000063 0.000017 1.000000
10.299151 61.099674 0.221054 0.000063 0.000017 1.000000
264.299042 35.700397 0.221137 -0.000006 0.000017 1.000000
238.899460 35.699177 0.226876 -0.000096 0.000017 1.000000
213.500320 35.699387 0.231881 0.000114 0.000017 1.000000
188.099136 35.699184 0.235790 -0.000262 0.000017 1.000000
162.699951 35.699089 0.242413 -0.000232 0.000017 1.000000
137.299103 35.700626 0.241376 -0.000013 0.000017 1.000000
111.899849 35.699108 0.237685 -0.000507 0.000017 1.000000
86.499092 35.699505 0.245225 -0.000431 0.000017 1.000000
61.099358 35.699203 0.235888 -0.000074 0.000017 1.000000
35.699234 35.698986 0.233356 0.000063 0.000017 1.000000
10.298927 35.700123 0.231038 0.000063 0.000017 1.000000
264.299133 10.300532 0.240795 -0.000006 0.000017 1.000000
238.898926 10.299110 0.245222 -0.000096 0.000017 1.000000
213.498993 10.298955 0.250564 0.000114 0.000017 1.000000
188.099243 10.299258 0.260147 -0.000262 0.000017 1.000000
162.698792 10.298871 0.257433 -0.000232 0.000017 1.000000
137.299286 10.299431 0.256030 -0.000013 0.000017 1.000000
111.899170 10.298952 0.253926 -0.000507 0.000017 1.000000
86.499275 10.298981 0.260031 -0.000431 0.000017 1.000000
61.099674 10.299413 0.247855 -0.000074 0.000017 1.000000
35.698929 10.299148 0.246453 0.000063 0.000017 1.000000
10.299634 10.299294 0.241541 0.000063 0.000017 1.000000
