264.299164 264.298950 0.175713 -0.000006 0.000017 1.000000
238.898972 264.299042 0.175013 -0.000096 0.000017 1.000000
213.499680 264.298889 0.181483 0.000114 0.000017 1.000000
188.099030 264.298889 0.186093 -0.000262 0.000017 1.000000
162.699081 264.298889 0.185179 -0.000232 0.000017 1.000000
137.298843 264.298920 0.185211 -0.000013 0.000017 1.000000
111.899223 264.298859 0.200013 -0.000507 0.000017 1.000000
86.499306 264.299042 0.195101 -0.000431 0.000017 1.000000
61.098946 264.298767 0.187565 -0.000074 0.000017 1.000000
35.699604 264.298828 0.190923 0.000063 0.000017 1.000000
10.299071 264.299591 0.191565 0.000063 0.000017 1.000000
264.299042 238.899200 0.179075 -0.000006 0.000017 1.000000
238.899643 238.898834 0.181579 -0.000096 0.000017 1.000000
213.499237 238.899063 0.182251 0.000114 0.000017 1.000000
188.099243 238.898911 0.190218 -0.000262 0.000017 1.000000
162.899246 238.898788 0.189720 -0.000232 0.000017 1.000000
137.299286 238.899277 0.185094 -0.000013 0.000017 1.000000
111.899483 238.898911 0.193396 -0.000507 0.000017 1.000000
86.499184 238.899170 0.192634 -0.000431 0.000017 1.000000
61.099049 238.899231 0.184152 -0.000074 0.000017 1.000000
35.699024 238.899002 0.190867 0.000063 0.000017 1.000000
10.298939 238.900162 0.179851 0.000063 0.000017 1.000000
264.298523 213.499695 0.170535 -0.000006 0.000017 1.000000
238.898972 213.498856 0.176365 -0.000096 0.000017 1.000000
213.498749 213.498917 0.181585 0.000114 0.000017 1.000000
188.098892 213.499039 0.189369 -0.000262 0.000017 1.000000
162.699158 213.498550 0.190499 -0.000232 0.000017 1.000000
137.298935 213.498917 0.187144 -0.000013 0.000017 1.000000
111.899216 213.498734 0.195690 -0.000507 0.000017 1.000000
86.499161 213.498657 0.196088 -0.000431 0.000017 1.000000
61.099102 213.498917 0.188734 -0.000074 0.000017 1.000000
35.698910 213.498703 0.190994 0.000063 0.000017 1.000000
10.299839 213.499512 0.182267 0.000063 0.000017 1.000000
264.300293 188.099075 0.172584 -0.000006 0.000017 1.000000
238.899002 188.099045 0.173929 -0.000096 0.000017 1.000000
213.498993 188.098892 0.179851 0.000114 0.000017 1.000000
188.098907 188.099030 0.185315 -0.000262 0.000017 1.000000
162.699249 188.098831 0.189893 -0.000232 0.000017 1.000000
137.299118 188.098892 0.191818 -0.000013 0.000017 1.000000
111.899399 188.098969 0.196213 -0.000507 0.000017 1.000000
86.499107 188.098999 0.194384 -0.000431 0.000017 1.000000
61.098816 188.099014 0.189258 -0.000074 0.000017 1.000000
35.698776 188.099136 0.190755 0.000063 0.000017 1.000000
10.298785 188.099579 0.184836 0.000063 0.000017 1.000000
264.298828 162.699142 0.174695 -0.000006 0.000017 1.000000
238.899033 162.698929 0.181807 -0.000096 0.000017 1.000000
213.499176 162.698944 0.180008 0.000114 0.000017 1.000000
188.098846 162.698883 0.186235 -0.000262 0.000017 1.000000
162.699509 162.698868 0.188830 -0.000232 0.000017 1.000000
137.298981 162.699127 0.194050 -0.000013 0.000017 1.000000
111.899483 162.698914 0.197195 -0.000507 0.000017 1.000000
86.499191 162.699219 0.195029 -0.000431 0.000017 1.000000
61.099220 162.699051 0.190423 -0.000074 0.000017 1.000000
35.699726 162.699036 0.188867 0.000063 0.000017 1.000000
10.298953 162.700287 0.187953 0.000063 0.000017 1.000000
264.298920 137.300400 0.175920 -0.000006 0.000017 1.000000
238.899200 137.298920 0.177173 -0.000096 0.000017 1.000000
213.498886 137.299133 0.183278 0.000114 0.000017 1.000000
188.099014 137.299011 0.193564 -0.000262 0.000017 1.000000
162.699051 137.298767 0.190209 -0.000232 0.000017 1.000000
137.298996 137.299225 0.191217 -0.000013 0.000017 1.000000
111.899345 137.298889 0.193721 -0.000507 0.000017 1.000000
86.499138 137.298691 0.197049 -0.000431 0.000017 1.000000
61.099087 137.299057 0.194395 -0.000074 0.000017 1.000000
35.698811 137.298889 0.192169 0.000063 0.000017 1.000000
10.299290 137.299652 0.192871 0.000063 0.000017 1.000000
264.300049 111.899620 0.179190 -0.000006 0.000017 1.000000
238.899002 111.898979 0.184655 -0.000096 0.000017 1.000000
213.500168 111.898903 0.192102 0.000114 0.000017 1.000000
188.099213 111.899040 0.200405 -0.000262 0.000017 1.000000
162.699158 111.898743 0.199552 -0.000232 0.000017 1.000000
137.299423 111.898964 0.201842 -0.000013 0.000017 1.000000
111.899239 111.899055 0.207123 -0.000507 0.000017 1.000000
86.499496 111.899071 0.209230 -0.000431 0.000017 1.000000
61.098812 111.899025 0.201022 -0.000074 0.000017 1.000000
35.698769 111.899078 0.200993 0.000063 0.000017 1.000000
10.299096 111.899391 0.201452 0.000063 0.000017 1.000000
264.298920 86.499878 0.193020 -0.000006 0.000017 1.000000
238.898834 86.498924 0.229125 -0.000096 0.000017 1.000000
213.499054 86.499016 0.200897 0.000114 0.000017 1.000000
188.099045 86.498894 0.210572 -0.000262 0.000017 1.000000
162.699158 86.498947 0.212008 -0.000232 0.000017 1.000000
137.299026 86.499001 0.213779 -0.000013 0.000017 1.000000
111.899277 86.499031 0.216161 -0.000507 0.000017 1.000000
86.499535 86.499252 0.215399 -0.000431 0.000017 1.000000
61.099155 86.498878 0.207131 -0.000074 0.000017 1.000000
35.700134 86.498962 0.206826 0.000063 0.000017 1.000000
10.299207 86.500015 0.210307 0.000063 0.000017 1.000000
264.299316 61.100376 0.207307 -0.000006 0.000017 1.000000
238.899841 61.098923 0.210696 -0.000096 0.000017 1.000000
213.499130 61.099205 0.211796 0.000114 0.000017 1.000000
188.098969 61.099178 0.224646 -0.000262 0.000017 1.000000
162.698853 61.099018 0.225166 -0.000232 0.000017 1.000000
137.298874 61.100250 0.223122 -0.000013 0.000017 1.000000
111.899223 61.098965 0.227702 -0.000507 0.000017 1.000000
86.499237 61.099037 0.225414 -0.000431 0.000017 1.000000
61.099091 61.098980 0.217450 -0.000074 0.000017 1.000000
35.698818 61.098854 0.214828 0.000063 0.000017 1.000000
10.298999 61.099689 0.222458 0.000063 0.000017 1.000000
264.299347 35.700474 0.219427 -0.000006 0.000017 1.000000
238.898911 35.699192 0.225777 -0.000096 0.000017 1.000000
213.499222 35.699005 0.235544 0.000114 0.000017 1.000000
188.099136 35.699200 0.233928 -0.000262 0.000017 1.000000
162.699020 35.698952 0.238355 -0.000232 0.000017 1.000000
137.299423 35.699467 0.237257 -0.000013 0.000017 1.000000
111.899147 35.699036 0.243301 -0.000507 0.000017 1.000000
86.499641 35.698879 0.245225 -0.000431 0.000017 1.000000
61.099045 35.699051 0.234423 -0.000074 0.000017 1.000000
35.698769 35.699078 0.233265 0.000063 0.000017 1.000000
10.299154 35.699818 0.229482 0.000063 0.000017 1.000000
264.298889 10.299519 0.224621 -0.000006 0.000017 1.000000
238.898911 10.299120 0.233259 -0.000096 0.000017 1.000000
213.499146 10.298797 0.236343 0.000114 0.000017 1.000000
188.098816 10.298869 0.239762 -0.000262 0.000017 1.000000
162.698868 10.298959 0.247820 -0.000232 0.000017 1.000000
137.298813 10.299048 0.254169 -0.000013 0.000017 1.000000
111.899231 10.298720 0.246755 -0.000507 0.000017 1.000000
86.499107 10.299067 0.249319 -0.000431 0.000017 1.000000
61.099049 10.298879 0.246605 -0.000074 0.000017 1.000000
35.699471 10.299067 0.235253 0.000063 0.000017 1.000000
10.299003 10.299062 0.233882 0.000063 0.000017 1.000000
