264.299377 264.299042 -0.012764 -0.000006 0.000017 1.000000
238.898956 264.298828 -0.014624 -0.000096 0.000017 1.000000
213.498795 264.299072 -0.013096 0.000114 0.000017 1.000000
188.099091 264.298920 -0.001681 -0.000262 0.000017 1.000000
162.698975 264.298615 -0.004457 -0.000232 0.000017 1.000000
137.299530 264.299103 -0.006837 -0.000013 0.000017 1.000000
111.899361 264.298706 0.000123 -0.000507 0.000017 1.000000
86.499458 264.298828 -0.002042 -0.000431 0.000017 1.000000
61.099468 264.299042 -0.007717 -0.000074 0.000017 1.000000
35.699818 264.298798 -0.008510 0.000063 0.000017 1.000000
10.299768 264.299561 -0.003321 0.000063 0.000017 1.000000
264.299438 238.899063 -0.017062 -0.000006 0.000017 1.000000
238.899094 238.899078 -0.013947 -0.000096 0.000017 1.000000
213.499237 238.898865 -0.011627 0.000114 0.000017 1.000000
188.099304 238.898865 -0.003904 -0.000262 0.000017 1.000000
162.899170 238.898972 -0.004402 -0.000232 0.000017 1.000000
137.299118 238.898773 -0.006801 -0.000013 0.000017 1.000000
111.899384 238.899002 -0.003748 -0.000507 0.000017 1.000000
86.499252 238.899002 -0.002007 -0.000431 0.000017 1.000000
61.099049 238.899063 -0.006461 -0.000074 0.000017 1.000000
35.700176 238.899048 -0.009970 0.000063 0.000017 1.000000
10.299094 238.899841 -0.004322 0.000063 0.000017 1.000000
264.299286 213.499344 -0.016172 -0.000006 0.000017 1.000000
238.900223 213.498901 -0.015225 -0.000096 0.000017 1.000000
213.498795 213.499176 -0.011652 0.000114 0.000017 1.000000
188.099182 213.499084 -0.003961 -0.000262 0.000017 1.000000
162.699219 213.498688 -0.002769 -0.000232 0.000017 1.000000
137.299164 213.499115 -0.006247 -0.000013 0.000017 1.000000
111.899429 213.498764 -0.004689 -0.000507 0.000017 1.000000
86.499382 213.498703 0.000714 -0.000431 0.000017 1.000000
61.099327 213.498871 -0.005663 -0.000074 0.000017 1.000000
35.698895 213.498749 -0.009964 0.000063 0.000017 1.000000
10.299687 213.499313 -0.003952 0.000063 0.000017 1.000000
264.300903 188.098846 -0.018945 -0.000006 0.000017 1.000000
238.899155 188.099152 -0.016593 -0.000096 0.000017 1.000000
213.499222 188.098999 -0.011037 0.000114 0.000017 1.000000
188.099136 188.098984 -0.004963 -0.000262 0.000017 1.000000
162.699326 188.098938 -0.002276 -0.000232 0.000017 1.000000
137.299103 188.098984 -0.005326 -0.000013 0.000017 1.000000
111.899460 188.098923 -0.005630 -0.000507 0.000017 1.000000
86.499413 188.099014 0.000658 -0.000431 0.000017 1.000000
61.098961 188.099060 -0.005108 -0.000074 0.000017 1.000000
35.699150 188.099014 -0.009532 0.000063 0.000017 1.000000
10.299318 188.099808 -0.004038 0.000063 0.000017 1.000000
264.299133 162.699097 -0.019885 -0.000006 0.000017 1.000000
238.899475 162.698792 -0.015092 -0.000096 0.000017 1.000000
213.500183 162.699142 -0.010911 0.000114 0.000017 1.000000
188.099228 162.699081 -0.007002 -0.000262 0.000017 1.000000
162.699585 162.698578 -0.000959 -0.000232 0.000017 1.000000
137.298965 162.699081 -0.002971 -0.000013 0.000017 1.000000
111.899620 162.699020 -0.004649 -0.000507 0.000017 1.000000
86.499260 162.698853 0.001304 -0.000431 0.000017 1.000000
61.099125 162.699158 -0.002815 -0.000074 0.000017 1.000000
35.698925 162.698837 -0.008459 0.000063 0.000017 1.000000
10.298951 162.699112 -0.003026 0.000063 0.000017 1.000000
264.299316 137.299255 -0.018171 -0.000006 0.000017 1.000000
238.899658 137.299026 -0.011639 -0.000096 0.000017 1.000000
213.498932 137.298935 -0.007792 0.000114 0.000017 1.000000
188.099945 137.299057 -0.006815 -0.000262 0.000017 1.000000
162.699356 137.299118 0.002251 -0.000232 0.000017 1.000000
137.299683 137.299240 -0.000159 -0.000013 0.000017 1.000000
111.899483 137.298981 -0.000799 -0.000507 0.000017 1.000000
86.499435 137.299286 0.005825 -0.000431 0.000017 1.000000
61.099075 137.298920 0.000364 -0.000074 0.000017 1.000000
35.698952 137.298935 -0.004731 0.000063 0.000017 1.000000
10.299195 137.299759 -0.000366 0.000063 0.000017 1.000000
264.299255 111.899788 -0.014047 -0.000006 0.000017 1.000000
238.899139 111.898766 -0.007422 -0.000096 0.000017 1.000000
213.500610 111.898933 -0.002173 0.000114 0.000017 1.000000
188.099274 111.899216 0.000209 -0.000262 0.000017 1.000000
162.699783 111.898682 0.009030 -0.000232 0.000017 1.000000
137.299164 111.899147 0.006713 -0.000013 0.000017 1.000000
111.899368 111.899086 0.007019 -0.000507 0.000017 1.000000
86.499397 111.898865 0.013093 -0.000431 0.000017 1.000000
61.099182 111.898979 0.006137 -0.000074 0.000017 1.000000
35.699062 111.899033 0.002690 0.000063 0.000017 1.000000
10.298771 111.899094 0.006109 0.000063 0.000017 1.000000
264.299255 86.499107 -0.007419 -0.000006 0.000017 1.000000
238.899109 86.498909 0.002745 -0.000096 0.000017 1.000000
213.499405 86.499031 0.007263 0.000114 0.000017 1.000000
188.099625 86.498825 0.009919 -0.000262 0.000017 1.000000
162.699066 86.498978 0.017764 -0.000232 0.000017 1.000000
137.299545 86.499641 0.017093 -0.000013 0.000017 1.000000
111.899254 86.499214 0.016576 -0.000507 0.000017 1.000000
86.499435 86.499435 0.021216 -0.000431 0.000017 1.000000
61.099140 86.498909 0.015053 -0.000074 0.000017 1.000000
35.698864 86.498840 0.011728 0.000063 0.000017 1.000000
10.299354 86.499969 0.013132 0.000063 0.000017 1.000000
264.299286 61.099743 0.003358 -0.000006 0.000017 1.000000
238.898895 61.098797 0.016422 -0.000096 0.000017 1.000000
213.500519 61.098930 0.018802 0.000114 0.000017 1.000000
188.099258 61.099049 0.021246 -0.000262 0.000017 1.000000
162.700317 61.099049 0.030738 -0.000232 0.000017 1.000000
137.298920 61.099258 0.029275 -0.000013 0.000017 1.000000
111.899506 61.099144 0.027292 -0.000507 0.000017 1.000000
86.499374 61.098835 0.032573 -0.000431 0.000017 1.000000
61.099236 61.098934 0.024976 -0.000074 0.000017 1.000000
35.699036 61.098957 0.019393 0.000063 0.000017 1.000000
10.298732 61.099319 0.022263 0.000063 0.000017 1.000000
264.299103 35.699474 0.018744 -0.000006 0.000017 1.000000
238.898819 35.699203 0.031045 -0.000096 0.000017 1.000000
213.499588 35.699104 0.035196 0.000114 0.000017 1.000000
188.099594 35.698906 0.035991 -0.000262 0.000017 1.000000
162.699066 35.699131 0.045727 -0.000232 0.000017 1.000000
137.299179 35.699875 0.043531 -0.000013 0.000017 1.000000
111.899277 35.698982 0.040359 -0.000507 0.000017 1.000000
86.499390 35.699379 0.046097 -0.000431 0.000017 1.000000
61.099022 35.698925 0.037737 -0.000074 0.000017 1.000000
35.698662 35.698948 0.030964 0.000063 0.000017 1.000000
10.299302 35.699371 0.033986 0.000063 0.000017 1.000000
264.299438 10.299764 0.038769 -0.000006 0.000017 1.000000
238.899063 10.298740 0.049787 -0.000096 0.000017 1.000000
213.500397 10.298829 0.053969 0.000114 0.000017 1.000000
188.099045 10.299037 0.054184 -0.000262 0.000017 1.000000
162.699417 10.298838 0.063005 -0.000232 0.000017 1.000000
137.298874 10.299459 0.060748 -0.000013 0.000017 1.000000
111.899460 10.298994 0.056325 -0.000507 0.000017 1.000000
86.499252 10.298929 0.059927 -0.000431 0.000017 1.000000
61.099037 10.299212 0.052269 -0.000074 0.000017 1.000000
35.699295 10.299172 0.044610 0.000063 0.000017 1.000000
10.298835 10.299336 0.046717 0.000063 0.000017 1.000000
