264.299713 264.298950 0.181358 -0.000006 0.000017 1.000000
238.899292 264.298737 0.184168 -0.000096 0.000017 1.000000
213.500443 264.298889 0.190638 0.000114 0.000017 1.000000
188.099045 264.298981 0.197415 -0.000262 0.000017 1.000000
162.699463 264.298645 0.193632 -0.000232 0.000017 1.000000
137.299316 264.299133 0.194213 -0.000013 0.000017 1.000000
111.899216 264.298920 0.200227 -0.000507 0.000017 1.000000
86.499382 264.298950 0.195040 -0.000431 0.000017 1.000000
61.099022 264.299103 0.189823 -0.000074 0.000017 1.000000
35.700157 264.298828 0.194737 0.000063 0.000017 1.000000
10.299077 264.299683 0.201331 0.000063 0.000017 1.000000
264.298889 238.899109 0.186491 -0.000006 0.000017 1.000000
238.899094 238.898987 0.187682 -0.000096 0.000017 1.000000
213.498871 238.898758 0.189362 0.000114 0.000017 1.000000
188.099075 238.898911 0.198092 -0.000262 0.000017 1.000000
162.898941 238.898788 0.194328 -0.000232 0.000017 1.000000
137.298828 238.898819 0.199804 -0.000013 0.000017 1.000000
111.899323 238.899063 0.198004 -0.000507 0.000017 1.000000
86.499115 238.898865 0.198738 -0.000431 0.000017 1.000000
61.099144 238.898926 0.189218 -0.000074 0.000017 1.000000
35.699730 238.899063 0.195627 0.000063 0.000017 1.000000
10.299115 238.899094 0.193066 0.000063 0.000017 1.000000
264.299469 213.498932 0.184359 -0.000006 0.000017 1.000000
238.899292 213.498962 0.187474 -0.000096 0.000017 1.000000
213.499619 213.499008 0.197515 0.000114 0.000017 1.000000
188.099442 213.498886 0.196937 -0.000262 0.000017 1.000000
162.699478 213.498810 0.201668 -0.000232 0.000017 1.000000
137.299957 213.499008 0.197702 -0.000013 0.000017 1.000000
111.899384 213.498764 0.205913 -0.000507 0.000017 1.000000
86.499092 213.499207 0.202405 -0.000431 0.000017 1.000000
61.099270 213.498840 0.198134 -0.000074 0.000017 1.000000
35.699299 213.499008 0.193893 0.000063 0.000017 1.000000
10.299388 213.500229 0.192246 0.000063 0.000017 1.000000
264.299377 188.099792 0.183845 -0.000006 0.000017 1.000000
238.898773 188.098892 0.190561 -0.000096 0.000017 1.000000
213.498764 188.099045 0.193675 0.000114 0.000017 1.000000
188.098999 188.098892 0.201184 -0.000262 0.000017 1.000000
162.699036 188.098587 0.207380 -0.000232 0.000017 1.000000
137.299438 188.099045 0.200332 -0.000013 0.000017 1.000000
111.899101 188.098724 0.204087 -0.000507 0.000017 1.000000
86.499191 188.098846 0.202715 -0.000431 0.000017 1.000000
61.099136 188.098953 0.197834 -0.000074 0.000017 1.000000
35.699013 188.098923 0.193868 0.000063 0.000017 1.000000
10.299662 188.099762 0.194357 0.000063 0.000017 1.000000
264.299530 162.699936 0.184155 -0.000006 0.000017 1.000000
238.898865 162.699081 0.191268 -0.000096 0.000017 1.000000
213.500519 162.698959 0.198043 0.000114 0.000017 1.000000
188.099014 162.699188 0.199907 -0.000262 0.000017 1.000000
162.699524 162.698776 0.208453 -0.000232 0.000017 1.000000
137.300171 162.699142 0.210895 -0.000013 0.000017 1.000000
111.899353 162.699081 0.228658 -0.000507 0.000017 1.000000
86.499519 162.698975 0.213828 -0.000431 0.000017 1.000000
61.099064 162.699265 0.198632 -0.000074 0.000017 1.000000
35.699810 162.699203 0.203699 0.000063 0.000017 1.000000
10.299036 162.699921 0.197017 0.000063 0.000017 1.000000
264.298828 137.299759 0.187029 -0.000006 0.000017 1.000000
238.899048 137.299179 0.193500 -0.000096 0.000017 1.000000
213.499115 137.298996 0.197652 0.000114 0.000017 1.000000
188.098816 137.299210 0.217124 -0.000262 0.000017 1.000000
162.699295 137.298935 0.208397 -0.000232 0.000017 1.000000
137.298798 137.298935 0.209345 -0.000013 0.000017 1.000000
111.899292 137.298981 0.209559 -0.000507 0.000017 1.000000
86.499069 137.298889 0.210721 -0.000431 0.000017 1.000000
61.099018 137.298904 0.204557 -0.000074 0.000017 1.000000
35.699600 137.298904 0.204833 0.000063 0.000017 1.000000
10.299145 137.299103 0.204133 0.000063 0.000017 1.000000
264.299103 111.899231 0.184593 -0.000006 0.000017 1.000000
238.899307 111.898903 0.195977 -0.000096 0.000017 1.000000
213.499146 111.898987 0.202021 0.000114 0.000017 1.000000
188.099518 111.898888 0.206569 -0.000262 0.000017 1.000000
162.699173 111.898804 0.210569 -0.000232 0.000017 1.000000
137.299362 111.899139 0.211363 -0.000013 0.000017 1.000000
111.899551 111.898895 0.215637 -0.000507 0.000017 1.000000
86.499420 111.899147 0.216646 -0.000431 0.000017 1.000000
61.100067 111.899033 0.206423 -0.000074 0.000017 1.000000
35.699402 111.899071 0.209049 0.000063 0.000017 1.000000
10.299328 111.899925 0.205358 0.000063 0.000017 1.000000
264.299286 86.500580 0.193020 -0.000006 0.000017 1.000000
238.898880 86.498878 0.202879 -0.000096 0.000017 1.000000
213.498978 86.499100 0.214721 0.000114 0.000017 1.000000
188.099030 86.498970 0.216432 -0.000262 0.000017 1.000000
162.698853 86.498802 0.224063 -0.000232 0.000017 1.000000
137.299255 86.499222 0.219883 -0.000013 0.000017 1.000000
111.899124 86.498886 0.222875 -0.000507 0.000017 1.000000
86.499306 86.499092 0.223822 -0.000431 0.000017 1.000000
61.099243 86.498940 0.212471 -0.000074 0.000017 1.000000
35.699039 86.498802 0.212534 0.000063 0.000017 1.000000
10.299605 86.499855 0.213267 0.000063 0.000017 1.000000
264.299866 61.100056 0.207459 -0.000006 0.000017 1.000000
238.899002 61.099007 0.225376 -0.000096 0.000017 1.000000
213.500549 61.098911 0.231418 0.000114 0.000017 1.000000
188.098984 61.099182 0.229620 -0.000262 0.000017 1.000000
162.699326 61.098934 0.237129 -0.000232 0.000017 1.000000
137.299347 61.099388 0.238900 -0.000013 0.000017 1.000000
111.899376 61.099121 0.238108 -0.000507 0.000017 1.000000
86.499557 61.099041 0.240276 -0.000431 0.000017 1.000000
61.099258 61.099136 0.227063 -0.000074 0.000017 1.000000
35.699688 61.099087 0.224348 0.000063 0.000017 1.000000
10.299307 61.099678 0.225876 0.000063 0.000017 1.000000
264.299042 35.700397 0.221991 -0.000006 0.000017 1.000000
238.899002 35.699425 0.242409 -0.000096 0.000017 1.000000
213.499146 35.699081 0.238047 0.000114 0.000017 1.000000
188.099060 35.699036 0.242137 -0.000262 0.000017 1.000000
162.699097 35.698940 0.252332 -0.000232 0.000017 1.000000
137.298828 35.699093 0.256606 -0.000013 0.000017 1.000000
111.899475 35.698963 0.253463 -0.000507 0.000017 1.000000
86.498947 35.699051 0.252397 -0.000431 0.000017 1.000000
61.099190 35.698883 0.236620 -0.000074 0.000017 1.000000
35.699707 35.698910 0.233020 0.000063 0.000017 1.000000
10.299003 35.699574 0.230123 0.000063 0.000017 1.000000
264.299347 10.299677 0.238903 -0.000006 0.000017 1.000000
238.899323 10.298960 0.249982 -0.000096 0.000017 1.000000
213.499695 10.299200 0.253462 0.000114 0.000017 1.000000
188.099304 10.298862 0.258591 -0.000262 0.000017 1.000000
162.699127 10.299120 0.268297 -0.000232 0.000017 1.000000
137.299454 10.299829 0.261279 -0.000013 0.000017 1.000000
111.899490 10.299031 0.261738 -0.000507 0.000017 1.000000
86.499199 10.299685 0.265737 -0.000431 0.000017 1.000000
61.099449 10.299338 0.253410 -0.000074 0.000017 1.000000
35.699242 10.299299 0.244561 0.000063 0.000017 1.000000
10.299328 10.299446 0.240656 0.000063 0.000017 1.000000
